# .PCD v0.7 - Point Cloud Data file format
VERSION 0.7
FIELDS x y z
SIZE 4 4 4
TYPE F F F
COUNT 1 1 1
WIDTH 1627
HEIGHT 1
VIEWPOINT 0 0 0 1 0 0 0
POINTS 1627
DATA ascii
18.94851868 70 -1.397726708
18.75872694 70 -3.018304723
18.43059381 70 -4.616623418
17.96653918 70 -6.180895551
18.28419511 70 -8.10482628
18.39747198 70 -10.12585921
18.29233147 70 -12.22254513
17.95695626 70 -14.37176823
19.55467124 70 -18.61759471
19.21005755 70 -21.72495544
18.46667844 70 -24.89943348
15.2131008 70 -24.6893006
13.03872856 70 -25.90350473
10.76819862 70 -26.92667633
8.708540318 70 -28.70821007
6.213341286 70 -29.34952112
3.917141606 70 -31.75934511
1.25144558 70 -33.97696108
-1.717368601 70 -34.95784097
-4.710324798 70 -34.68159224
-7.668543405 70 -34.14957455
-10.26820228 70 -32.41240537
-12.62855327 70 -30.48802457
-14.27670004 70 -27.51682823
-14.97993336 70 -23.65589983
-15.13777604 70 -19.89592262
-17.46053283 70 -19.26472926
-21.97962815 70 -20.41802993
-23.65039283 70 -18.45694772
-24.30851646 70 -15.81442466
-24.6937954 70 -13.19910863
-23.89696014 70 -10.24379304
-23.73820451 70 -7.84204351
-24.32349881 70 -5.776452707
-24.72941275 70 -3.668261861
-23.95483471 70 -1.471697671
-22.99307283 70 0.564448256
-23.85376728 70 2.645332975
-24.51963201 70 4.87725805
-23.05033247 70 6.684472545
-21.45883437 70 8.27758584
-17.07481485 70 8.333708532
-13.72365776 70 8.225643907
-8.104571983 70 5.857978575
-8.329297312 70 7.184901272
-9.078891242 70 9.304500729
-8.881505978 70 10.82214635
-6.788781729 70 9.895071633
-4.43608373 70 7.83078292
-3.331436481 70 7.273343865
-2.358228974 70 6.590808456
-1.784059617 70 6.768835297
-1.025771333 70 5.911665854
-0.6005811864 70 6.974188285
0 69.6 5
0.5147838741 69.6 5.977875673
0.8548094438 69.6 4.926388212
1.019462638 69.6 3.867905884
2.02133912 69.6 5.649264391
2.0821478 69.6 4.545839915
3.450287346 69.6 6.090608938
3.960122675 69.6 5.772125119
5.709539557 69.6 6.95709408
5.587009995 69.6 5.725846602
3.786044233 69.6 3.265864215
2.431371595 69.6 1.757393572
4.28864305 69.6 2.570513721
9.885419123 69.6 4.824778624
12.12890638 69.6 4.678635475
16.32731883 69.6 4.73483472
18.63492033 69.6 3.706716118
19.8781394 69.6 2.204444146
18.99427756 69.6 0.4662833419
19.96236226 69.6 -1.226414726
17.80517718 69.6 -2.64114854
17.51291914 69.6 -4.159045949
18.04103543 69.6 -5.959953068
18.38227703 69.6 -7.879840801
18.52034655 69.6 -9.899331473
19.27916823 69.6 -12.54247473
18.92031426 69.6 -14.76555817
19.78166534 69.6 -18.37622694
18.80365074 69.6 -20.74663151
18.16533124 69.6 -23.87510714
16.58492622 69.6 -26.19046052
13.35562262 69.6 -25.74154899
10.71513611 69.6 -25.86862691
8.75817253 69.6 -27.64587517
6.792138445 69.6 -30.24676603
4.172001964 69.6 -30.7179817
1.668300927 69.6 -33.95904551
-1.288252803 69.6 -34.97628346
-4.406784307 69.6 -35.72926325
-7.663120919 69.6 -36.19774272
-9.869679027 69.6 -32.53597141
-12.2534674 69.6 -30.64070066
-13.48833989 69.6 -26.79672904
-14.68851111 69.6 -23.83794541
-15.48818192 69.6 -20.88339582
-17.22281022 69.6 -19.47754626
-21.00316541 69.6 -19.9966758
-23.42211686 69.6 -18.74578464
-24.94408837 69.6 -16.66710699
-24.52996264 69.6 -13.50114562
-23.76945365 69.6 -10.53627416
-22.69457581 69.6 -7.807447012
-24.25078133 69.6 -6.074504498
-23.69523404 69.6 -3.81259544
-23.93497096 69.6 -1.765549526
-23.99819284 69.6 0.2945169189
-22.88924871 69.6 2.254394228
-23.5945317 69.6 4.392957311
-23.13062558 69.6 6.401106179
-19.68411925 69.6 7.316792285
-18.07978586 69.6 8.551101869
-13.8235657 69.6 8.05661414
-8.993432945 69.6 6.333890106
-7.651672656 69.6 6.438315429
-8.485281374 69.6 8.485281374
-8.369810058 69.6 9.947174453
-6.909698297 69.6 9.811017758
-4.531845454 69.6 7.775755705
-3.420440747 69.6 7.231914345
-2.438930762 69.6 6.561373083
-1.866989302 69.6 6.746432461
-1.098239328 69.6 5.898632925
-0.4900857016 69.6 4.975923633
-0.07362922971 69.6 5.999548211
0.4413873816 69.2 5.98374274
0.7942907167 69.2 4.936507091
1.2149009 69.2 4.850156266
1.951861753 69.2 5.673643952
2.431447884 69.2 5.485258534
2.893102632 69.2 5.256420565
3.888991631 69.2 5.820287286
4.998875905 69.2 6.245897829
5.516324358 69.2 5.793976664
5.243954762 69.2 4.636910443
2.409622594 69.2 1.787097913
5.108131159 69.2 3.147538096
7.14579441 69.2 3.596890637
11.14207297 69.2 4.455806327
16.26798571 69.2 4.934839513
18.58803004 69.2 3.935116148
19.84959069 69.2 2.448213504
19.98644769 69.2 0.7361444588
18.97711367 69.2 -0.9322858122
17.83624744 69.2 -2.422452753
17.56263834 69.2 -3.943822323
18.11281477 69.2 -5.738113037
17.55371112 69.2 -7.270985215
17.75279241 69.2 -9.210774219
18.58677844 69.2 -11.76994764
19.10008571 69.2 -14.53226499
19.26472926 69.2 -17.46053283
19.05682794 69.2 -20.51431961
19.07217931 69.2 -24.43873926
16.35974965 69.2 -25.14674117
13.67050537 69.2 -25.57571667
10.63778508 69.2 -24.816074
9.096770472 69.2 -27.53631724
6.931743248 69.2 -29.18819857
4.548644708 69.2 -30.66447181
2.084905034 69.2 -33.93601584
-0.8834842268 69.2 -35.98915747
-3.857777255 69.2 -34.78674395
-6.633070949 69.2 -33.34669953
-9.748189128 69.2 -33.61506818
-12.23643124 69.2 -31.72175516
-13.59710339 69.2 -27.85890844
-13.88077409 69.2 -23.15867247
-15.23074429 69.2 -21.07188715
-17.63566676 69.2 -20.44463886
-20.04046311 69.2 -19.55453498
-23.96332405 69.2 -19.66619181
-23.91308978 69.2 -16.40622251
-24.36243575 69.2 -13.80114938
-24.54753554 69.2 -11.24359812
-24.48014569 69.2 -8.759136188
-24.17441178 69.2 -6.37164149
-23.64666342 69.2 -4.10308533
-21.91887747 69.2 -1.887540872
-24 69.2 -4.408728477e-15
-22.91519008 69.2 1.973338184
-24.63194106 69.2 4.274047219
-24.17441178 69.2 6.37164149
-21.6555135 69.2 7.748466628
-19.09252764 69.2 8.745020762
-14.79147885 69.2 8.379269268
-9.895071633 69.2 6.788781729
-8.503114987 69.2 6.978326126
-8.588769903 69.2 8.380514993
-9.144419801 69.2 10.60092385
-7.029574289 69.2 9.725486379
-5.141027442 69.2 8.5772861
-3.947546147 69.2 8.088070191
-2.879160292 69.2 7.463942391
-1.671118136 69.2 5.762583116
-1.365632254 69.2 6.865496963
-0.6613332438 69.2 5.96344182
-0.09816491409 69.2 3.998795275
0.3066036815 68.8 4.990590565
0.7336523723 68.8 4.94588255
1.38634865 68.8 5.837639713
1.254726962 68.8 3.798112722
2.36395224 68.8 5.51468311
2.828380421 68.8 5.291527586
3.817274919 68.8 5.867572939
4.921852725 68.8 6.306771421
5.444807982 68.8 5.861234173
4.445706752 68.8 4.029353729
3.183347618 68.8 2.422044166
5.069121391 68.8 3.209985719
7.988756584 68.8 4.144848399
11.08655439 68.8 4.592201188
15.25289665 68.8 4.832095189
19.5140426 68.8 4.382024803
19.81805271 68.8 2.69161417
19.97590912 68.8 0.9813534865
17.98780292 68.8 -0.6625300129
16.87215209 68.8 -2.080981478
17.60971267 68.8 -3.728004771
17.22492604 68.8 -5.225124191
18.57012161 68.8 -7.426343879
17.86448602 68.8 -8.992226593
18.72981425 68.8 -11.54097302
19.27698076 68.8 -14.29678331
19.47754626 68.8 -17.22281022
19.30713525 68.8 -20.27891832
18.74578464 68.8 -23.42211686
16.66710699 68.8 -24.94408837
13.98332939 68.8 -25.40603273
12.15723942 68.8 -27.42629267
9.759308765 68.8 -28.36821976
7.775365757 68.8 -31.0410001
5.083460587 68.8 -31.59364538
2.427630599 68.8 -32.91058507
-0.42950384 68.8 -34.99736456
-3.430599912 68.8 -34.83146543
-6.589435966 68.8 -35.39179755
-9.334946512 68.8 -33.7321623
-12.19465381 68.8 -32.80686542
-14.10931808 68.8 -29.83164667
-14.60261313 68.8 -25.05521283
-14.97101298 68.8 -21.25720514
-16.73962012 68.8 -19.89434891
-18.38477631 68.8 -18.38477631
-23.72018523 68.8 -19.95877783
-25.34512921 68.8 -17.85005393
-25.05521283 68.8 -14.60261313
-25.31170021 68.8 -11.97154262
-24.37081431 68.8 -9.058885686
-24.09440164 68.8 -6.667818937
-23.5945317 68.8 -4.392957311
-22.88924871 68.8 -2.254394228
-22.99826814 68.8 -0.2822453806
-21.94039005 68.8 1.618420399
-24.68253545 68.8 3.971453583
-23.28075008 68.8 5.831524318
-21.74896848 68.8 7.48213672
-20.11261463 68.8 8.915308908
-15.7692617 68.8 8.679307897
-11.64057457 68.8 7.777983262
-9.368846743 68.8 7.498313858
-8.690964995 68.8 8.274486537
-9.273820886 68.8 10.48790952
-7.744090958 68.8 10.44169791
-5.245896827 68.8 8.513551931
-3.596890637 68.8 7.14579441
-2.970537552 68.8 7.428048644
-1.451423386 68.8 4.784701679
-1.242668257 68.8 5.869904224
-0.7344640512 68.8 5.954877208
-0.1840361147 68.8 4.996611923
0.3434737203 68.4 6.991568193
0.807484251 68.4 5.945415813
1.314607441 68.4 5.85421278
1.812035696 68.4 5.719836242
2.296100594 68.4 5.543277195
2.763232266 68.4 5.325837722
3.744983339 68.4 5.913974957
4.844088331 68.4 6.366695237
5.372471639 68.4 5.927609003
5.128579902 68.4 4.764206985
4.730078566 68.4 3.691389543
4.191123528 68.4 2.726624942
7.055370115 68.4 3.771173895
11.94848007 68.4 5.121896521
14.24292271 68.4 4.705226106
18.48585909 68.4 4.390104057
17.80517718 68.4 2.64114854
19.96236226 68.4 1.226414726
17.99457874 68.4 -0.4417421134
16.89641849 68.4 -1.873777524
17.65413505 68.4 -3.511625796
17.28774935 68.4 -5.013354409
17.72686318 68.4 -6.838005694
18.87216378 68.4 -9.210941009
18.87002942 68.4 -11.31026037
19.45097276 68.4 -14.05914858
19.68743001 68.4 -16.98249392
19.55453498 68.4 -20.04046311
19.03179852 68.4 -23.1903136
17.53768613 68.4 -25.56226839
14.78694577 68.4 -26.10260973
11.66002768 68.4 -25.45670353
10.1066956 68.4 -28.24632196
7.645969788 68.4 -29.00929413
5.299818552 68.4 -30.54360691
3.002905932 68.4 -34.87094143
4.286263797e-15 68.4 -35
-3.088703244 68.4 -35.86725404
-6.325589884 68.4 -36.45527277
-9.175163746 68.4 -34.81115296
-12.12803472 68.4 -33.89558635
-13.74217548 68.4 -30.00254344
-15.27984396 68.4 -26.97269672
-15.27475889 68.4 -22.26391118
-16.49422539 68.4 -20.09827179
-19.55453498 68.4 -20.04046311
-22.7162654 68.4 -19.59518529
-25.12417315 68.4 -18.15973358
-24.87412969 68.4 -14.90897958
-25.16288504 68.4 -12.28125468
-25.19080557 68.4 -9.717165986
-24.01076299 68.4 -6.962992235
-23.53884673 68.4 -4.682167728
-23.85376728 68.4 -2.645332975
-22.99307283 68.4 -0.564448256
-22.9567166 68.4 1.410376935
-23.74023624 68.4 3.521531387
-24.32349881 68.4 5.776452707
-22.78867633 68.4 7.52836177
-20.22050474 68.4 8.667824881
-15.87458276 68.4 8.485141263
-12.57337058 68.4 8.179874826
-8.671810704 68.4 6.767547496
-8.79185126 68.4 8.167211974
-9.401825368 68.4 10.37331575
-7.871643538 68.4 10.34587976
-6.419971439 68.4 10.13824278
-4.144848399 68.4 7.988756584
-3.061467459 68.4 7.39103626
-1.812035696 68.4 5.719836242
-1.314607441 68.4 5.85421278
-0.9420649595 68.4 6.936318448
-0.294406046 68.4 5.992772737
0.2208433376 68 5.995934308
0.7344640512 68 5.954877208
1.035556881 68 4.891586854
1.451423386 68 4.784701679
1.85658597 68 4.642530402
2.697667978 68 5.359345807
3.147538096 68 5.108131159
4.765594436 68 6.425660252
6.624157776 68 7.491363945
5.069729581 68 4.826783813
4.684423371 68 3.749156929
5.820287286 68 3.888991631
6.132490659 68 3.375286405
10.97051707 68 4.862895768
15.12971721 68 5.204964675
16.4905313 68 4.130663058
19.74602836 68 3.177162867
18.94851868 68 1.397726708
19.99849404 68 -0.2454307657
17.91332508 68 -1.764308526
17.69589877 68 -3.294717983
18.31174525 68 -5.067542392
17.80944123 68 -6.619954925
18.98377516 68 -8.978656962
18.14342998 68 -10.57430606
18.8044507 68 -13.2435884
19.89434891 68 -16.73962012
19.79898987 68 -19.79898987
18.67111474 68 -22.1898507
17.85005393 68 -25.34512921
15.6096899 68 -26.78315854
12.39909771 68 -26.2156895
10.10414173 68 -27.18283135
8.268095482 68 -29.87705804
5.857276415 68 -31.4593756
3.430599912 68 -34.83146543
0.4540469166 68 -36.99721397
-2.721888853 68 -36.8997469
-5.71889316 68 -35.54285105
-8.747286477 68 -34.92112512
-11.38586023 68 -33.09625639
-13.77820468 68 -31.08313169
-14.94769693 68 -27.15817292
-15.00039629 68 -22.44967953
-15.6214872 68 -19.51843071
-17.92805416 68 -18.83042416
-21.72495544 68 -19.21005755
-25.70264101 68 -19.06237774
-25.54065579 68 -15.73769048
-24.11705613 68 -12.1395059
-24.14115809 68 -9.654247043
-23.92350839 68 -7.257116931
-23.4796169 68 -4.970673029
-22.8270293 68 -2.81544553
-22.98441485 68 -0.8465661277
-22.97229549 68 1.12855651
-23.78166325 68 3.229937004
-23.41685112 68 5.258429764
-21.92603893 68 6.946136834
-20.32534972 68 8.419035512
-17.75279241 68 9.210774219
-13.51765704 68 8.559961918
-10.34587976 68 7.871643538
-8.891413504 68 8.058707458
-8.847812971 68 9.524505532
-8.613242268 68 11.03684999
-5.998574873 68 9.220471761
-4.713967368 68 8.819212643
-3.15193632 68 7.352910814
-2.509453923 68 7.596225445
-1.38634865 68 5.837639713
-0.7336523723 68 4.94588255
-0.3679244178 68 5.988708677
0.1227061426 67.6 4.998494093
0.5511110365 67.6 4.96953485
1.170541932 67.6 5.884711682
1.671118136 67.6 5.762583116
1.799475183 67.6 4.664963994
2.631697431 67.6 5.392046794
3.084616465 67.6 5.14637166
4.68638286 67.6 6.483657586
5.225382744 67.6 6.057670772
5.725846602 67.6 5.587009995
6.184083627 67.6 5.075146273
5.772125119 67.6 3.960122675
6.960695929 67.6 3.943185538
11.81918378 67.6 5.413584281
14.12316098 67.6 5.053347801
16.43860001 67.6 4.332716213
18.72027521 67.6 3.248275886
17.93362702 67.6 1.544351622
19 67.6 1.163414459e-15
17.93362702 67.6 -1.544351622
17.73499756 67.6 -3.077313998
17.40557648 67.6 -4.587581873
17.88933724 67.6 -6.400907214
17.27419168 67.6 -7.912161642
18.27182681 67.6 -10.35086204
19.79014327 67.6 -13.57756346
20.09827179 67.6 -16.49422539
19.32473228 67.6 -18.85615873
18.94201245 67.6 -21.95905655
18.15973358 67.6 -25.12417315
16.45128781 67.6 -27.44731552
13.15848716 67.6 -26.96023397
10.7968511 67.6 -27.98978397
8.91263006 67.6 -30.73377662
6.242890305 67.6 -31.38512897
3.637332841 67.6 -32.79893001
0.8834842268 67.6 -35.98915747
-2.207546507 67.6 -35.93225206
-5.429027555 67.6 -36.59953087
-8.549150006 67.6 -35.99877823
-11.60622439 67.6 -35.13254268
-13.7897214 67.6 -32.16898481
-15.08469558 67.6 -28.22148046
-15.81442466 67.6 -24.30851646
-15.38078976 67.6 -19.70866069
-17.01502494 67.6 -18.31635679
-20.74663151 67.6 -18.80365074
-24.67094404 67.6 -18.77084228
-25.34560696 67.6 -16.0499286
-24.85390937 67.6 -12.89508391
-24.02086785 67.6 -9.949769241
-23.83265101 67.6 -7.550148733
-23.41685112 67.6 -5.258429764
-22.79076061 67.6 -3.095356296
-21.97350004 67.6 -1.079488835
-21.98509246 67.6 0.8097589047
-22.8270293 67.6 2.81544553
-23.4796169 67.6 4.970673029
-23.92350839 67.6 7.257116931
-21.35563985 67.6 8.540295461
-17.86448602 67.6 8.992226593
-14.47303828 67.6 8.918024606
-11.24490544 67.6 8.339790263
-9.738773129 67.6 8.611405109
-9.653567626 67.6 10.13945916
-8.123173346 67.6 10.14958397
-6.666842796 67.6 9.977635348
-4.821837721 67.6 8.760700942
-3.241930512 67.6 7.313678046
-2.277172045 67.6 6.619251278
-1.457881079 67.6 5.820187519
-0.7942907167 67.6 4.936507091
-0.4413873816 67.6 5.98374274
0.085900768 67.2 6.999472913
0.588102842 67.2 5.97110836
0.9151994398 67.2 4.915527437
1.06685103 67.2 3.855104263
2.090512081 67.2 5.624034071
2.565330561 67.2 5.423935759
3.021230302 67.2 5.183837137
4.03065734 67.2 5.723093692
5.794483886 67.2 6.886505391
6.363961031 67.2 6.363961031
6.121338125 67.2 5.150652343
6.540678505 67.2 4.606465531
7.775755705 67.2 4.531845454
11.75186081 67.2 5.558216215
14.06008518 67.2 5.226280204
16.38419312 67.2 4.534116877
18.67900426 67.2 3.477757871
18.90850981 67.2 1.862325666
17.99864463 67.2 0.2208876891
16.95393776 67.2 -1.250597581
17.77142553 67.2 -2.85944658
16.4905313 67.2 -4.130663058
17.02093186 67.2 -5.855585259
17.36998536 67.2 -7.699584966
18.39747198 67.2 -10.12585921
19.12380108 67.2 -12.77811536
18.73769349 67.2 -14.99662772
18.83042416 67.2 -17.92805416
19.87247333 67.2 -22.47409184
19.06237774 67.2 -25.70264101
16.78686985 67.2 -27.24336618
13.93795122 67.2 -27.68995334
11.13951582 67.2 -27.85518241
8.998824995 67.2 -29.66515041
6.627564038 67.2 -31.30615586
4.161962957 67.2 -33.74430418
1.325060026 67.2 -35.97560585
-1.81550395 67.2 -36.95543188
-5.114066923 67.2 -37.65430015
-8.325847126 67.2 -37.07668094
-11.77823202 67.2 -37.17893557
-13.77660357 67.2 -33.25966317
-15.65831617 67.2 -30.17974709
-15.51493098 67.2 -24.50075339
-15.74328708 67.2 -20.69175952
-16.78897387 67.2 -18.52377813
-19.78166534 67.2 -18.37622694
-23.65039283 67.2 -18.45694772
-25.14674117 67.2 -16.35974965
-24.6937954 67.2 -13.19910863
-23.89696014 67.2 -10.24379304
-24.6877327 67.2 -8.15572525
-23.35055885 67.2 -5.545394599
-22.75105973 67.2 -3.374800912
-21.95859848 67.2 -1.349056199
-21.99337401 67.2 0.5399070275
-21.86595334 67.2 2.42488856
-22.55806145 67.2 4.487077406
-22.08990195 67.2 6.405952856
-21.45883437 67.2 8.27758584
-19.77083825 67.2 9.649557248
-17.1545722 67.2 10.28205488
-12.15685797 67.2 8.786967862
-10.60092385 67.2 9.144419801
-9.777267492 67.2 10.02023155
-8.881505978 67.2 10.82214635
-6.223049919 67.2 9.070482331
-5.421880115 67.2 9.570956902
-3.331436481 67.2 7.273343865
-2.695118827 67.2 7.532352521
-1.784059617 67.2 6.768835297
-1.196733221 67.2 6.896943497
-0.5147838741 67.2 5.977875673
0 66.8 6
0.4289865617 66.8 4.981563061
0.8548094438 66.8 4.926388212
1.529193958 66.8 5.801858826
2.02133912 66.8 5.649264391
2.0821478 66.8 4.545839915
2.957389153 66.8 5.220521947
4.525854486 66.8 6.596714422
5.709539557 66.8 6.95709408
6.285386245 66.8 6.441577428
6.057670772 66.8 5.225382744
7.294114784 66.8 5.272180717
7.71955749 66.8 4.626924698
10.78409359 66.8 5.263394862
13.99489198 66.8 5.398425548
15.36688831 66.8 4.45631503
17.65413505 66.8 3.511625796
18.88423243 66.8 2.094221939
18.99427756 66.8 0.4662833419
16.96800792 66.8 -1.042452517
16.81600067 66.8 -2.494418066
17.51291914 66.8 -4.159045949
18.04103543 66.8 -5.959953068
17.46316318 66.8 -7.485848761
18.52034655 66.8 -9.899331473
19.27916823 66.8 -12.54247473
18.92031426 66.8 -14.76555817
19.78166534 66.8 -18.37622694
20.14676865 66.8 -22.22853376
19.37635332 66.8 -25.46678095
17.65492146 66.8 -27.88016765
14.73723875 66.8 -28.40446785
12.24586984 66.8 -29.56414504
9.362184429 66.8 -29.55248725
7.230340925 66.8 -32.19817029
4.575744089 66.8 -33.6906896
1.81550395 66.8 -36.95543188
-1.361867249 66.8 -36.97492823
-4.529194982 66.8 -36.72174278
-7.663120919 66.8 -36.19774272
-11.03081774 66.8 -36.36373276
-13.36741898 66.8 -33.4262189
-15.28678521 66.8 -30.36962624
-15.73769048 66.8 -25.54065579
-14.29678331 66.8 -19.27698076
-16.56039444 66.8 -18.72840986
-19.55467124 66.8 -18.61759471
-22.64137963 66.8 -18.12092516
-24.94408837 66.8 -16.66710699
-25.40603273 66.8 -13.98332939
-25.59787316 66.8 -11.34675679
-23.64018313 66.8 -8.132757304
-24.25078133 66.8 -6.074504498
-23.69523404 66.8 -3.81259544
-22.9376805 66.8 -1.691984963
-22.99826814 66.8 0.2822453806
-21.89406399 66.8 2.156377087
-23.5945317 66.8 4.392957311
-23.13062558 66.8 6.401106179
-21.55879727 66.8 8.013629646
-18.07978586 66.8 8.551101869
-15.55151141 66.8 9.063690907
-13.08135701 66.8 9.212931063
-11.47750898 66.8 9.657473143
-9.899494937 66.8 9.899494937
-9.0136416 66.8 10.71234172
-6.909698297 66.8 9.811017758
-5.035383837 66.8 8.639728561
-3.420440747 66.8 7.231914345
-2.787349442 66.8 7.498712095
-1.866989302 66.8 6.746432461
-1.281279216 66.8 6.881738412
-0.4900857016 66.8 4.975923633
-0.085900768 66.8 6.999472913
0.4413873816 66.4 5.98374274
0.7942907167 66.4 4.936507091
1.457881079 66.4 5.820187519
1.626551461 66.4 4.728036627
2.836689198 66.4 6.39946829
2.893102632 66.4 5.256420565
3.888991631 66.4 5.820287286
5.623735393 66.4 7.026635057
5.516324358 66.4 5.793976664
5.993091156 66.4 5.299326221
6.425660252 66.4 4.765594436
7.662196738 66.4 4.721307144
10.71869161 66.4 5.395335956
12.99908513 66.4 5.198440715
15.31104537 66.4 4.644554836
16.6313953 66.4 3.520893395
17.86463162 66.4 2.203392154
16.98848054 66.4 0.62572279
16.97952276 66.4 -0.8341504636
16.8453448 66.4 -2.287872045
16.58693621 66.4 -3.724721083
17.15950873 66.4 -5.436107088
17.55371112 66.4 -7.270985215
17.75279241 66.4 -9.210774219
18.58677844 66.4 -11.76994764
18.30424881 66.4 -13.92675395
20.00568038 66.4 -18.13209178
19.05682794 66.4 -20.51431961
19.07217931 66.4 -24.43873926
17.99572462 66.4 -27.66141528
15.08469558 66.4 -28.22148046
12.60774528 66.4 -29.41164325
10.35149743 66.4 -31.33442996
7.855975682 66.4 -33.07995837
4.988836131 66.4 -33.63200134
2.207546507 66.4 -35.93225206
-0.9325666839 66.4 -37.98855511
-4.188443877 66.4 -37.76846486
-7.413432237 66.4 -37.26984066
-10.5837482 66.4 -36.49635974
-14.03590642 66.4 -36.38671915
-15.79018459 66.4 -32.35228076
-15.93718507 66.4 -26.58958691
-15.23074429 66.4 -21.07188715
-15.67614823 66.4 -18.17301232
-18.60900146 66.4 -18.15778248
-22.41730315 66.4 -18.39740524
-26.38685769 66.4 -18.10341795
-26.10260973 66.4 -14.78694577
-25.45670353 66.4 -11.66002768
-24.48014569 66.4 -8.759136188
-23.20743531 66.4 -6.116775831
-23.64666342 66.4 -4.10308533
-22.91519008 66.4 -1.973338184
-22 66.4 -4.041334437e-15
-21.91887747 66.4 1.887540872
-22.66138577 66.4 3.932123441
-23.20743531 66.4 6.116775831
-21.6555135 66.4 7.748466628
-19.09252764 66.4 8.745020762
-17.40173982 66.4 9.857963845
-14.84260745 66.4 10.18317259
-12.36816725 66.4 10.15029255
-10.02023155 66.4 9.777267492
-9.797592644 66.4 11.3581327
-6.443776432 66.4 8.915029181
-5.141027442 66.4 8.5772861
-3.947546147 66.4 8.088070191
-2.879160292 66.4 7.463942391
-2.228157515 66.4 7.683444155
-1.170541932 66.4 5.884711682
-0.6613332438 66.4 5.96344182
-0.1472473711 66.4 5.998192912
0.3679244178 66 5.988708677
0.8803828467 66 5.93505906
1.38634865 66 5.837639713
1.882090442 66 5.697169084
2.36395224 66 5.51468311
2.828380421 66 5.291527586
3.817274919 66 5.867572939
4.306621134 66 5.518424993
6.12540898 66 6.593888445
6.668560128 66 6.044030594
6.366695237 66 4.844088331
7.603682087 66 4.814978579
9.764035824 66 5.065925821
13.85819299 66 5.740251485
15.25289665 66 4.832095189
16.58693621 66 3.724721083
15.85444217 66 2.153291336
15.9807273 66 0.7850827892
16.98848054 66 -0.62572279
15.87967255 66 -1.958570803
17.60971267 66 -3.728004771
16.26798571 66 -4.934839513
17.64161553 66 -7.055026685
17.86448602 66 -8.992226593
18.72981425 66 -11.54097302
19.27698076 66 -14.29678331
20.22668265 66 -17.88522599
19.9966758 66 -21.00316541
19.99550362 66 -24.98359131
18.33381769 66 -27.43849721
15.91206448 66 -28.91031311
12.56248073 66 -28.34050243
10.40992935 66 -30.25943441
8.504306297 66 -33.95109386
5.71889316 66 -35.54285105
2.721888853 66 -36.8997469
-0.4785899931 66 -38.99706337
-3.822668473 66 -38.81220434
-7.321595518 66 -39.3242195
-10.40179754 66 -37.58726657
-13.58832853 66 -36.55622146
-15.39198336 66 -32.54361455
-16.11322828 66 -27.6471314
-15.54682117 66 -22.07478996
-15.45195703 66 -18.36401437
-17.67766953 66 -17.67766953
-21.42468344 66 -18.0272832
-25.34512921 66 -17.85005393
-25.91918568 66 -15.10615151
-26.2156895 66 -12.39909771
-25.30815332 66 -9.407304367
-24.09440164 66 -6.667818937
-23.5945317 66 -4.392957311
-22.88924871 66 -2.254394228
-22.99826814 66 -0.2822453806
-21.94039005 66 1.618420399
-22.70793262 66 3.653737297
-22.31071882 66 5.588544138
-21.74896848 66 7.48213672
-20.11261463 66 8.915308908
-18.39747198 66 10.12585921
-14.96645302 66 10.00026419
-13.27253289 66 10.6226113
-11.58795333 66 11.03264872
-9.936236664 66 11.23704592
-6.552692349 66 8.835282846
-5.245896827 66 8.513551931
-4.046501967 66 8.039018711
-2.970537552 66 7.428048644
-2.322277418 66 7.655522686
-1.449779633 66 6.848221595
-0.7344640512 66 5.954877208
-0.2208433376 66 5.995934308
0.3434737203 65.6 6.991568193
0.6729035425 65.6 4.954513177
1.314607441 65.6 5.85421278
1.510029747 65.6 4.766530202
1.530733729 65.6 3.69551813
1.842154844 65.6 3.550558482
3.744983339 65.6 5.913974957
4.23857729 65.6 5.570858332
6.044030594 65.6 6.668560128
7.326542717 65.6 6.806009978
7.095117849 65.6 5.537084315
8.382247056 65.6 5.453249884
9.701133908 65.6 5.185364105
13.78670778 65.6 5.909880601
14.24292271 65.6 4.705226106
16.53997919 65.6 3.927987841
15.82682416 65.6 2.347687591
15.96988981 65.6 0.9811317808
15.9951811 65.6 -0.3926596564
15.90251152 65.6 -1.763555317
16.67334977 65.6 -3.316535474
17.28774935 65.6 -5.013354409
17.72686318 65.6 -6.838005694
17.97348931 65.6 -8.772324771
18.87002942 65.6 -11.31026037
19.45097276 65.6 -14.05914858
20.44463886 65.6 -17.63566676
20.25291123 65.6 -20.75619393
20.30058509 65.6 -24.73633451
18.66914976 65.6 -27.21144699
16.75853854 65.6 -29.5829577
13.74217548 65.6 -30.00254344
11.11736516 65.6 -31.07095415
8.920298086 65.6 -33.84417649
6.154627995 65.6 -35.46999513
3.260297869 65.6 -37.85987926
4.776122517e-15 65.6 -39
-3.431892494 65.6 -39.85250449
-6.83847555 65.6 -39.4111057
-10.19462638 65.6 -38.67905884
-13.47559414 65.6 -37.66176261
-15.82432328 65.6 -34.54838336
-16.75853854 65.6 -29.5829577
-16.40622251 65.6 -23.91308978
-15.22543882 65.6 -18.55225088
-16.76102999 65.6 -17.17753981
-22.7162654 65.6 -19.59518529
-23.50325875 65.6 -16.98813787
-25.7318583 65.6 -15.42308233
-26.06155951 65.6 -12.71987092
-24.25781277 65.6 -9.35727095
-24.9711935 65.6 -7.241511924
-24.51963201 65.6 -4.87725805
-23.85376728 65.6 -2.645332975
-22.99307283 65.6 -0.564448256
-22.9567166 65.6 1.410376935
-22.75105973 65.6 3.374800912
-21.40467895 65.6 5.083278382
-21.83914815 65.6 7.214680029
-20.22050474 65.6 8.667824881
-18.52034655 65.6 9.899331473
-16.76449411 65.6 10.90649977
-13.40188927 65.6 10.45893704
-10.98981408 65.6 10.20901497
-10.07338432 65.6 11.11426688
-7.266132497 65.6 9.550042855
-5.884973819 65.6 9.293389218
-4.144848399 65.6 7.988756584
-3.061467459 65.6 7.39103626
-2.416047595 65.6 7.626448323
-1.533708681 65.6 6.82991491
-0.9420649595 65.6 6.936318448
-0.294406046 65.6 5.992772737
0.2208433376 65.2 5.995934308
0.8568747264 65.2 6.947356742
1.449779633 65.2 6.848221595
1.451423386 65.2 4.784701679
1.85658597 65.2 4.642530402
2.248056648 65.2 4.466121506
3.672127779 65.2 5.959486352
4.169895131 65.2 5.62245272
5.299326221 65.2 5.993091156
7.24247083 65.2 6.895405447
7.807372286 65.2 6.248594881
8.314696123 65.2 5.55570233
11.38891122 65.2 6.268389037
12.79893658 65.2 5.673378396
15.12971721 65.2 5.204964675
15.52050005 65.2 3.887682878
15.79682269 65.2 2.541730293
15.95664731 65.2 1.177033018
15.99879523 65.2 -0.1963446126
15.92295563 65.2 -1.568274245
16.71279329 65.2 -3.111678095
17.34796918 65.2 -4.800829635
18.74678024 65.2 -6.968373605
18.98377516 65.2 -8.978656962
18.14342998 65.2 -10.57430606
19.62203552 65.2 -13.81939659
19.89434891 65.2 -16.73962012
19.79898987 65.2 -19.79898987
19.95877783 65.2 -23.72018523
19.57747851 65.2 -27.79788365
17.12030505 65.2 -29.37507711
14.96442827 65.2 -31.63962526
12.54307249 65.2 -33.74420443
9.601659269 65.2 -34.69593837
6.955515742 65.2 -37.35800852
3.724651333 65.2 -37.81701961
0.4908615314 65.2 -39.99698807
-2.942582544 65.2 -39.89161827
-6.513183877 65.2 -40.47935814
-9.719207196 65.2 -38.80125013
-13.01241169 65.2 -37.82429302
-16.20965256 65.2 -36.56839023
-17.84079957 65.2 -32.41459349
-16.11153676 65.2 -24.11261876
-14.99662772 65.2 -18.73769349
-16.54897307 65.2 -17.38192999
-20.22668265 65.2 -17.88522599
-24.09622594 65.2 -17.87097913
-25.54065579 65.2 -15.73769048
-25.01028043 65.2 -12.58911723
-25.99817025 65.2 -10.39688143
-24.88044873 65.2 -7.547401609
-24.45793427 65.2 -5.177784405
-24.81198836 65.2 -3.06026688
-22.98441485 65.2 -0.8465661277
-22.97229549 65.2 1.12855651
-21.79985798 65.2 2.960775587
-21.46544686 65.2 4.820227283
-21.92603893 65.2 6.946136834
-19.40147018 65.2 8.03635208
-17.75279241 65.2 9.210774219
-16.8970713 65.2 10.6999524
-14.32506428 65.2 10.89919875
-11.11426688 65.2 10.07338432
-9.528413969 65.2 10.2571598
-7.382779087 65.2 9.460157132
-5.998574873 65.2 9.220471761
-4.242570631 65.2 7.937291379
-2.75794428 65.2 6.433796962
-2.195772183 65.2 6.646697264
-1.38634865 65.2 5.837639713
-1.027113321 65.2 6.92423557
-0.3679244178 65.2 5.988708677
0.1472473711 64.8 5.998192912
0.6613332438 64.8 5.96344182
1.365632254 64.8 6.865496963
1.949637826 64.8 6.723013636
1.799475183 64.8 4.664963994
2.193081193 64.8 4.493372328
3.598719209 64.8 6.00410027
4.100585002 64.8 5.673200388
5.225382744 64.8 6.057670772
6.441577428 64.8 6.285386245
7.730104534 64.8 6.343932842
8.245893028 64.8 5.657318108
10.44104389 64.8 5.914778307
13.63751975 64.8 6.246443401
14.12316098 64.8 5.053347801
15.47162354 64.8 4.077850554
15.76444228 64.8 2.73539022
15.94100179 64.8 1.372756998
16 64.8 9.797174393e-16
15.94100179 64.8 -1.372756998
16.74971992 64.8 -2.906352109
17.40557648 64.8 -4.587581873
17.88933724 64.8 -6.400907214
18.18335966 64.8 -8.328591202
19.1419138 64.8 -10.84376023
19.79014327 64.8 -13.57756346
20.87128224 64.8 -17.12861867
20.04046311 64.8 -19.55453498
20.24835813 64.8 -23.47347424
19.3313293 64.8 -26.74508754
17.4794933 64.8 -29.16277274
15.35156835 64.8 -31.4536063
12.59632628 64.8 -32.65474796
10.02670882 64.8 -34.5754987
7.608522559 64.8 -38.25062594
4.298666084 64.8 -38.76237183
0.9571079124 64.8 -38.98825393
-2.452829452 64.8 -39.92472452
-6.015949453 64.8 -40.55623691
-9.47338244 64.8 -39.89053804
-12.54726962 64.8 -37.98112722
-15.7596816 64.8 -36.76455407
-17.44167926 64.8 -32.63108678
-16.90507464 64.8 -25.98496587
-15.38078976 64.8 -19.70866069
-16.33442395 64.8 -17.58370252
-20.00568038 64.8 -18.13209178
-24.67094404 64.8 -18.77084228
-26.19046052 64.8 -16.58492622
-25.74154899 64.8 -13.35562262
-25.86862691 64.8 -10.71513611
-24.78595705 64.8 -7.852154682
-23.41685112 64.8 -5.258429764
-23.78166325 64.8 -3.229937004
-21.97350004 64.8 -1.079488835
-22.98441485 64.8 0.8465661277
-22.8270293 64.8 2.81544553
-21.52298216 64.8 4.556450276
-22.00962772 64.8 6.676547577
-19.49862769 64.8 7.797661073
-18.75771033 64.8 9.441837923
-15.32439348 64.8 9.442614288
-14.45773557 64.8 10.72258748
-11.23704592 64.8 9.936236664
-9.653567626 64.8 10.13945916
-7.498313858 64.8 9.368846743
-5.55570233 64.8 8.314696123
-4.339653949 64.8 7.884630848
-3.241930512 64.8 7.313678046
-2.277172045 64.8 6.619251278
-1.943841439 64.8 7.760250026
-0.95314886 64.8 5.923808509
-0.5149519452 64.8 6.981033197
0.07362922971 64.4 5.999548211
0.4900857016 64.4 4.975923633
0.9151994398 64.4 4.915527437
1.333563787 64.4 4.818880329
2.438930762 64.4 6.561373083
2.565330561 64.4 5.423935759
2.517691919 64.4 4.319864281
4.03065734 64.4 5.723093692
4.5068208 64.4 5.356170859
6.363961031 64.4 6.363961031
7.651672656 64.4 6.438315429
9.811017758 64.4 6.909698297
9.503701417 64.4 5.538922221
11.75186081 64.4 5.558216215
14.06008518 64.4 5.226280204
15.42041705 64.4 4.26740412
15.7296878 64.4 2.928638207
14.9277709 64.4 1.470257105
14.99887053 64.4 0.1840730743
14.95935685 64.4 -1.103468454
16.78412411 64.4 -2.700588437
16.4905313 64.4 -4.130663058
17.02093186 64.4 -5.855585259
18.28419511 64.4 -8.10482628
19.27354207 64.4 -10.60804299
20.78674031 64.4 -13.88925583
20.29916794 64.4 -16.24634669
21.00316541 64.4 -19.9966758
21.19730488 64.4 -23.97236462
20.25377635 64.4 -27.30905607
18.88522858 64.4 -30.64878695
15.73639654 64.4 -31.26285054
13.36741898 64.4 -33.4262189
10.74053306 64.4 -35.40679242
8.077343671 64.4 -38.15437746
4.651605658 64.4 -37.71422231
1.435481695 64.4 -38.973573
-1.962706973 64.4 -39.95181825
-5.652389757 64.4 -41.61791069
-8.983150846 64.4 -40.00378733
-12.38224392 64.4 -39.08554765
-15.69002073 64.4 -37.87906083
-17.96100973 64.4 -34.6179452
-17.11992384 64.4 -27.03531409
-16.34879812 64.4 -21.48759642
-16.78897387 64.4 -18.52377813
-19.04901106 64.4 -17.69562594
-23.65039283 64.4 -18.45694772
-25.14674117 64.4 -16.35974965
-26.45763793 64.4 -14.1419021
-24.816074 64.4 -10.63778508
-25.63726088 64.4 -8.469406991
-25.29643876 64.4 -6.007510815
-22.75105973 64.4 -3.374800912
-21.95859848 64.4 -1.349056199
-21.99337401 64.4 0.5399070275
-20.87204637 64.4 2.314666353
-22.55806145 64.4 4.487077406
-21.12947143 64.4 6.127433166
-19.59284878 64.4 7.557795767
-17.97348931 64.4 8.772324771
-17.1545722 64.4 10.28205488
-14.58822957 64.4 10.54436143
-12.11534154 64.4 10.45076549
-9.078891242 64.4 9.304500729
-8.247112694 64.4 10.04913589
-6.223049919 64.4 9.070482331
-4.928981922 64.4 8.700869911
-3.331436481 64.4 7.273343865
-2.695118827 64.4 7.532352521
-1.784059617 64.4 6.768835297
-1.196733221 64.4 6.896943497
-0.6005811864 64.4 6.974188285
0 64 7
0.5147838741 64 5.977875673
1.025771333 64 5.911665854
1.274328298 64 4.834882355
1.684449267 64 4.707720326
2.498577361 64 5.455007899
2.464490961 64 4.350434956
3.960122675 64 5.772125119
5.075146273 64 6.184083627
6.285386245 64 6.441577428
8.329297312 64 7.184901272
7.294114784 64 5.272180717
9.43501471 64 5.655130186
11.68276805 64 5.702011101
13.99489198 64 5.398425548
13.44602727 64 3.899275651
14.71177921 64 2.92635483
14.90860455 64 1.653333109
15.9951811 64 0.3926596564
13.97365358 64 -0.8584903082
15.82682416 64 -2.347687591
17.51291914 64 -4.159045949
18.04103543 64 -5.959953068
18.38227703 64 -7.879840801
19.40226782 64 -10.37072821
19.27916823 64 -12.54247473
20.49700712 64 -15.99602136
20.51431961 64 -19.05682794
20.8183276 64 -22.96948489
19.37635332 64 -25.46678095
18.7249167 64 -29.56987478
16.11885488 64 -31.06738671
13.77660357 64 -33.25966317
10.87221418 64 -34.31901745
8.106745886 64 -36.10097881
5.248647632 64 -38.64520278
1.962706973 64 -39.95181825
-1.509096141 64 -40.97221777
-5.018837683 64 -40.69166092
-8.491566424 64 -40.1110122
-11.90167177 64 -39.23455377
-14.85268776 64 -37.14024322
-17.08523053 64 -33.94252345
-17.83604921 64 -28.94607657
-16.08388122 64 -21.68660335
-15.23556288 64 -17.23013707
-18.10617707 64 -17.23851362
-21.8606424 64 -17.49606567
-24.94408837 64 -16.66710699
-27.15817292 64 -14.94769693
-27.42629267 64 -12.15723942
-25.53139779 64 -8.783377888
-24.25078133 64 -6.074504498
-23.69523404 64 -3.81259544
-22.9376805 64 -1.691984963
-23.99819284 64 0.2945169189
-21.89406399 64 2.156377087
-22.61142621 64 4.209917423
-21.20307345 64 5.867680664
-19.68411925 64 7.316792285
-18.07978586 64 8.551101869
-17.27945712 64 10.07076767
-15.53411145 64 10.94035564
-12.24267625 64 10.30130469
-10.60660172 64 10.60660172
-7.725978515 64 9.182007187
-6.333890106 64 8.993432945
-5.035383837 64 8.639728561
-3.847995841 64 8.135903638
-2.787349442 64 7.498712095
-2.13370206 64 7.710208526
-1.281279216 64 6.881738412
-0.588102842 64 5.97110836
-0.06135769143 64 4.999623509
0.4413873816 63.6 5.98374274
0.95314886 63.6 5.923808509
1.457881079 63.6 5.820187519
1.626551461 63.6 4.728036627
2.431447884 63.6 5.485258534
2.893102632 63.6 5.256420565
3.888991631 63.6 5.820287286
4.998875905 63.6 6.245897829
6.205864903 63.6 6.518223747
6.742227551 63.6 5.961741998
8.032075315 63.6 5.956993045
10.21626232 63.6 6.295076192
10.71869161 63.6 5.395335956
12.99908513 63.6 5.198440715
13.3971647 63.6 4.063985482
14.67476056 63.6 3.106670643
13.89471348 63.6 1.713749453
14.98983577 63.6 0.5521083441
14.98193184 63.6 -0.7360151149
15.85444217 63.6 -2.153291336
15.61123408 63.6 -3.505619843
18.11281477 63.6 -5.738113037
17.55371112 63.6 -7.270985215
18.64043203 63.6 -9.67131293
19.431632 63.6 -12.30494526
20.69175952 63.6 -15.74328708
21.48758264 63.6 -19.47520969
21.77923193 63.6 -23.44493669
20.30264249 63.6 -26.01543211
19.08637459 63.6 -29.33786469
16.49888579 63.6 -30.86724425
14.57770548 63.6 -34.00721251
11.60622439 63.6 -35.13254268
9.242324331 63.6 -38.91759809
5.869218978 63.6 -39.5670604
2.514150188 63.6 -40.92284263
-1.006190369 63.6 -40.98765157
-4.519110499 63.6 -40.75018577
-8.388883847 63.6 -42.17376706
-11.41930726 63.6 -39.3776513
-14.7556965 63.6 -38.25270475
-17.1060333 63.6 -35.04830416
-17.99359605 63.6 -30.02050135
-16.40234001 63.6 -22.69280155
-15.02297539 63.6 -17.41580347
-17.17753981 63.6 -16.76102999
-22.41730315 63.6 -18.39740524
-25.56226839 63.6 -17.53768613
-26.10260973 63.6 -14.78694577
-26.36587151 63.6 -12.07645724
-24.48014569 63.6 -8.759136188
-26.10836472 63.6 -6.881372809
-23.64666342 63.6 -4.10308533
-23.91150269 63.6 -2.059135496
-24 63.6 -4.408728477e-15
-21.91887747 63.6 1.887540872
-20.69083049 63.6 3.590199664
-21.27348236 63.6 5.607044511
-20.71396943 63.6 7.411576775
-18.18335966 63.6 8.328591202
-17.40173982 63.6 9.857963845
-14.84260745 63.6 10.18317259
-13.14117771 63.6 10.78468583
-10.73596238 63.6 10.47564374
-7.838074115 63.6 9.086506158
-7.029574289 63.6 9.725486379
-5.141027442 63.6 8.5772861
-4.386162385 63.6 8.986744657
-2.519265256 63.6 6.530949592
-2.228157515 63.6 7.683444155
-1.365632254 63.6 6.865496963
-0.8817776584 63.6 7.95125576
-0.1472473711 63.6 5.998192912
0.3679244178 63.2 5.988708677
0.8803828467 63.2 5.93505906
1.38634865 63.2 5.837639713
1.254726962 63.2 3.798112722
1.9699602 63.2 4.595569258
2.828380421 63.2 5.291527586
3.271949931 63.2 5.029348233
5.537084315 63.2 7.095117849
4.764206985 63.2 5.128579902
7.409511254 63.2 6.715589548
7.958369046 63.2 6.055110414
10.13824278 63.2 6.419971439
9.764035824 63.2 5.065925821
13.85819299 63.2 5.740251485
13.34628456 63.2 4.22808329
13.65982982 63.2 3.067417362
12.88173426 63.2 1.749549211
14.98193184 63.2 0.7360151149
14.98983577 63.2 -0.5521083441
15.87967255 63.2 -1.958570803
17.60971267 63.2 -3.728004771
18.18186638 63.2 -5.515408868
18.57012161 63.2 -7.426343879
19.65093463 63.2 -9.891449252
19.58116944 63.2 -12.0655627
20.88339582 63.2 -15.48818192
20.97581905 63.2 -18.54764177
20.68621634 63.2 -21.72741249
19.99550362 63.2 -24.98359131
18.88938792 63.2 -28.26996682
17.35861579 63.2 -31.53852339
14.5886873 63.2 -32.91155121
12.03648081 63.2 -34.98747104
9.719207196 63.2 -38.80125013
6.19546759 63.2 -38.50475531
2.942582544 63.2 -39.89161827
-0.5031330697 63.2 -40.99691278
-4.018702754 63.2 -40.80257379
-7.504635406 63.2 -40.30732498
-10.93522306 63.2 -39.5148187
-14.63358457 63.2 -39.3682385
-17.10220374 63.2 -36.15957172
-19.13445858 63.2 -32.83096853
-16.69843755 63.2 -23.70995958
-16.73962012 63.2 -19.89434891
-16.97056275 63.2 -16.97056275
-20.65951617 63.2 -17.38345166
-25.34512921 63.2 -17.85005393
-26.78315854 63.2 -15.6096899
-26.2156895 63.2 -12.39909771
-27.18283135 63.2 -10.10414173
-26.02195378 63.2 -7.201244452
-24.57763719 63.2 -4.575997199
-22.88924871 63.2 -2.254394228
-23.99819284 63.2 -0.2945169189
-21.94039005 63.2 1.618420399
-22.70793262 63.2 3.653737297
-21.34068757 63.2 5.345563958
-20.80336116 63.2 7.156826428
-19.19840487 63.2 8.510067594
-17.52140188 63.2 9.643675442
-15.79792263 63.2 10.55583443
-13.27253289 63.2 10.6226113
-10.13945916 63.2 9.653567626
-8.611405109 63.2 9.738773129
-6.552692349 63.2 8.835282846
-5.245896827 63.2 8.513551931
-4.496113297 63.2 8.932243012
-2.970537552 63.2 7.428048644
-2.031992741 63.2 6.69858235
-1.449779633 63.2 6.848221595
-0.7344640512 63.2 5.954877208
-0.2208433376 63.2 5.995934308
0.294406046 62.8 5.992772737
0.807484251 62.8 5.945415813
1.314607441 62.8 5.85421278
1.812035696 62.8 5.719836242
2.296100594 62.8 5.543277195
2.763232266 62.8 5.325837722
4.279980959 62.8 6.758828522
4.23857729 62.8 5.570858332
4.700912684 62.8 5.186657877
6.593888445 62.8 6.12540898
7.883464276 62.8 6.152315906
9.220471761 62.8 5.998574873
9.701133908 62.8 5.185364105
11.02936622 62.8 4.727904481
14.24292271 62.8 4.705226106
13.62115933 62.8 3.234813516
14.83764765 62.8 2.200957117
14.97177169 62.8 0.9198110445
13.99578346 62.8 -0.3435771993
15.90251152 62.8 -1.763555317
17.65413505 62.8 -3.511625796
17.28774935 62.8 -5.013354409
18.65985598 62.8 -7.197900731
18.87216378 62.8 -9.210941009
20.58548664 62.8 -12.33846586
21.07188715 62.8 -15.23074429
20.44463886 62.8 -17.63566676
21.64966373 62.8 -22.18765558
20.93497838 62.8 -25.50934496
19.80061338 62.8 -28.8606256
17.74433492 62.8 -31.32313168
14.99146416 62.8 -32.73004739
12.46492458 62.8 -34.83713041
10.19462638 62.8 -38.67905884
6.667513662 62.8 -38.42582805
3.517689806 62.8 -40.8488171
4.898587197e-15 62.8 -40
-3.603487118 62.8 -41.84512971
-7.180399328 62.8 -41.38166098
-10.95922336 62.8 -41.57998825
-13.81248399 62.8 -38.60330667
-17.07361196 62.8 -37.27588731
-18.7301313 62.8 -33.06330566
-16.40622251 62.8 -23.91308978
-15.8598321 62.8 -19.32526133
-16.76102999 62.8 -17.17753981
-20.44463886 62.8 -17.63566676
-25.12417315 62.8 -18.15973358
-25.7318583 62.8 -15.42308233
-26.06155951 62.8 -12.71987092
-25.19080557 62.8 -9.717165986
-24.9711935 62.8 -7.241511924
-24.51963201 62.8 -4.87725805
-22.85986031 62.8 -2.535110768
-23.99277165 62.8 -0.5889894845
-22.9567166 62.8 1.410376935
-21.76188322 62.8 3.228070438
-21.40467895 62.8 5.083278382
-19.94009179 62.8 6.587316548
-18.38227703 62.8 7.879840801
-17.63842529 62.8 9.427934737
-15.0880447 62.8 9.815849792
-13.40188927 62.8 10.45893704
-11.72246835 62.8 10.88961596
-8.730266413 62.8 9.63236463
-6.660621455 62.8 8.754205951
-5.349976199 62.8 8.448535652
-3.684309688 62.8 7.101116963
-3.444150891 62.8 8.314915793
-2.114041645 62.8 6.673142282
-1.752809921 62.8 7.80561704
-1.076645668 62.8 7.927221083
-0.3434737203 62.8 6.991568193
0.2208433376 62.4 5.995934308
0.7344640512 62.4 5.954877208
1.242668257 62.4 5.869904224
2.031992741 62.4 6.69858235
1.85658597 62.4 4.642530402
2.697667978 62.4 5.359345807
3.147538096 62.4 5.108131159
4.169895131 62.4 5.62245272
5.299326221 62.4 5.993091156
6.518223747 62.4 6.205864903
7.807372286 62.4 6.248594881
9.146165735 62.4 6.111272563
9.636771036 62.4 5.304021493
10.97051707 62.4 4.862895768
13.23850256 62.4 4.55434409
12.61040629 62.4 3.158742339
14.80952127 62.4 2.38287215
13.96206639 62.4 1.02990389
13.99894583 62.4 -0.171801536
14.9277709 62.4 -1.470257105
16.71279329 62.4 -3.111678095
17.34796918 62.4 -4.800829635
18.74678024 62.4 -6.968373605
18.98377516 62.4 -8.978656962
20.73534855 62.4 -12.08492121
20.43962033 62.4 -14.39520479
21.42468344 62.4 -18.0272832
21.21320344 62.4 -21.21320344
20.60260937 62.4 -24.4853525
20.72909489 62.4 -29.43305327
18.6309202 62.4 -31.96699568
15.39198336 62.4 -32.54361455
13.58832853 62.4 -36.55622146
10.6685103 62.4 -38.55104263
7.321595518 62.4 -39.3242195
3.920685613 62.4 -39.80738907
0.515404608 62.4 -41.99683748
-3.089711671 62.4 -41.88619918
-6.67204202 62.4 -41.46665956
-10.20516756 62.4 -40.74131263
-13.66303227 62.4 -39.71550767
-16.61489387 62.4 -37.48259998
-18.32298334 62.4 -33.29066358
-18.33381769 62.4 -27.43849721
-15.6214872 62.4 -19.51843071
-15.85943253 62.4 -16.65768291
-19.47754626 62.4 -17.22281022
-23.29301841 62.4 -17.27527983
-26.39201099 62.4 -16.26228016
-25.90350473 62.4 -13.03872856
-25.99817025 62.4 -10.39688143
-25.83738906 62.4 -7.837686286
-24.45793427 62.4 -5.177784405
-23.81950883 62.4 -2.937856205
-23.98373723 62.4 -0.8833733506
-21.97350004 62.4 1.079488835
-21.79985798 62.4 2.960775587
-20.48974473 62.4 4.601126043
-20.01942685 62.4 6.342124936
-18.47759065 62.4 7.653668647
-17.75279241 62.4 9.210774219
-16.05221774 62.4 10.16495478
-12.73339047 62.4 9.688176662
-10.37331575 62.4 9.401825368
-8.847812971 62.4 9.524505532
-6.767547496 62.4 8.671810704
-5.998574873 62.4 9.220471761
-4.713967368 62.4 8.819212643
-3.15193632 62.4 7.352910814
-2.509453923 62.4 7.596225445
-1.617406758 62.4 6.810579665
-0.8803828467 62.4 5.93505906
-0.3679244178 62.4 5.988708677
0.1717885997 62 6.997891731
0.5511110365 62 4.96953485
1.170541932 62 5.884711682
1.392598447 62 4.802152597
1.799475183 62 4.664963994
3.07031367 62 6.29072126
3.084616465 62 5.14637166
4.100585002 62 5.673200388
5.225382744 62 6.057670772
6.441577428 62 6.285386245
6.95709408 62 5.709539557
9.070482331 62 6.223049919
10.44104389 62 5.914778307
11.81918378 62 5.413584281
11.29852878 62 4.042678241
12.57069412 62 3.313253575
13.79388699 62 2.393466443
11.95575135 62 1.029567748
13 62 7.960204194e-16
14.94468918 62 -1.286959685
15.76444228 62 -2.73539022
17.40557648 62 -4.587581873
17.88933724 62 -6.400907214
20.00169563 62 -9.161450322
20.0120008 62 -11.33665842
21.43932187 62 -14.70902708
20.87128224 62 -17.12861867
22.18765558 62 -21.64966373
20.90153097 62 -24.23068309
19.91712715 62 -27.55554474
18.50769879 62 -30.87822996
16.22880083 62 -33.25095523
13.67601139 62 -35.45372636
10.86226789 62 -37.45679026
7.803612881 62 -39.23141122
4.519110499 62 -40.75018577
1.006190369 62 -40.98765157
-2.514150188 62 -40.92284263
-6.162679927 62 -41.54541342
-9.47338244 62 -39.89053804
-12.86095136 62 -38.9306554
-16.94165772 62 -39.52189562
-18.85586947 62 -35.27685057
-17.99572462 62 -27.66141528
-15.99602136 62 -20.49700712
-14.97322195 62 -16.11839398
-18.52377813 62 -16.78897387
-23.07927023 62 -17.5598202
-26.19046052 62 -16.58492622
-27.51682823 62 -14.27670004
-26.79250644 62 -11.09781954
-25.73926309 62 -8.154160632
-25.36825538 62 -5.696632244
-25.76346852 62 -3.499098421
-24.96988641 62 -1.226691858
-22.98441485 62 0.8465661277
-22.8270293 62 2.81544553
-21.52298216 62 4.556450276
-21.05268739 62 6.3862629
-19.49862769 62 7.797661073
-16.97126172 62 8.542615263
-15.32439348 62 9.442614288
-13.65452804 62 10.12688818
-11.23704592 62 9.936236664
-9.653567626 62 10.13945916
-7.498313858 62 9.368846743
-5.55570233 62 8.314696123
-4.821837721 62 8.760700942
-3.241930512 62 7.313678046
-2.927792629 62 8.510465928
-1.943841439 62 7.760250026
-1.112007003 62 6.911109927
-0.5149519452 62 6.981033197
0.085900768 61.6 6.999472913
0.6861199823 61.6 6.966293087
1.098239328 61.6 5.898632925
1.600276545 61.6 5.782656395
2.090512081 61.6 5.624034071
2.565330561 61.6 5.423935759
3.524768686 61.6 6.047809993
4.03065734 61.6 5.723093692
4.5068208 61.6 5.356170859
5.656854249 61.6 5.656854249
7.651672656 61.6 6.438315429
9.811017758 61.6 6.909698297
8.639728561 61.6 5.035383837
11.75186081 61.6 5.558216215
11.24806814 61.6 4.181024163
12.52908886 61.6 3.467265847
12.78037134 61.6 2.379518543
11.94221672 61.6 1.176205684
14.99887053 61.6 0.1840730743
14.95935685 61.6 -1.103468454
16.78412411 61.6 -2.700588437
18.43059381 61.6 -4.616623418
19.85775383 61.6 -6.831516135
19.19840487 61.6 -8.510067594
20.14961217 61.6 -11.09022676
21.61820992 61.6 -14.44482606
21.8606424 61.6 -17.49606567
21.72741249 61.6 -20.68621634
21.85972066 61.6 -24.72150102
20.84947566 61.6 -28.1122636
18.88522858 61.6 -30.64878695
16.6356192 61.6 -33.04929914
14.48137056 61.6 -36.21173714
11.61138709 61.6 -38.27761343
8.491566424 61.6 -40.1110122
5.141248358 61.6 -41.68414045
1.509096141 61.6 -40.97221777
-2.011774647 61.6 -40.9506137
-5.517809049 61.6 -40.62700805
-9.202252087 61.6 -40.97948946
-12.68424987 61.6 -40.03885369
-16.07270416 61.6 -38.80294037
-18.42154844 61.6 -35.50558482
-18.7249167 61.6 -29.56987478
-16.95430916 61.6 -22.28343333
-16.11741492 61.6 -17.78282701
-19.04901106 61.6 -17.69562594
-23.65039283 61.6 -18.45694772
-25.98496587 61.6 -16.90507464
-27.33955919 61.6 -14.61329884
-26.6543017 61.6 -11.42576916
-25.63726088 61.6 -8.469406991
-24.32349881 61.6 -5.776452707
-24.72941275 61.6 -3.668261861
-24.95295282 61.6 -1.533018408
-22.99307283 61.6 0.564448256
-22.85986031 61.6 2.535110768
-20.59649089 61.6 4.096896762
-20.16904091 61.6 5.848913477
-18.65985598 61.6 7.197900731
-17.07481485 61.6 8.333708532
-15.43911498 61.6 9.253849395
-13.77777237 61.6 9.958563577
-11.3581327 61.6 9.797592644
-9.078891242 61.6 9.304500729
-6.978326126 61.6 8.503114987
-6.223049919 61.6 9.070482331
-4.928981922 61.6 8.700869911
-3.747866041 61.6 8.182511848
-2.695118827 61.6 7.532352521
-2.293790936 61.6 8.702788239
-1.196733221 61.6 6.896943497
-0.5147838741 61.6 5.977875673
0 61.2 8
0.5147838741 61.2 5.977875673
0.8548094438 61.2 4.926388212
1.529193958 61.2 5.801858826
1.684449267 61.2 4.707720326
2.498577361 61.2 5.455007899
2.957389153 61.2 5.220521947
3.960122675 61.2 5.772125119
5.075146273 61.2 6.184083627
6.285386245 61.2 6.441577428
6.814879619 61.2 5.878555587
7.294114784 61.2 5.272180717
9.43501471 61.2 5.655130186
10.78409359 61.2 5.263394862
11.19591359 61.2 4.318740438
12.48559675 61.2 3.620755962
12.75020865 61.2 2.536174186
13.91469758 61.2 1.543110902
13.99578346 61.2 0.3435771993
15.96988981 61.2 -0.9811317808
16.81600067 61.2 -2.494418066
17.51291914 61.2 -4.159045949
18.99056361 61.2 -6.273634808
20.22050474 61.2 -8.667824881
20.28418908 61.2 -10.84212495
21.79384234 61.2 -14.1784497
22.07369997 61.2 -17.22648454
21.97962815 61.2 -20.41802993
22.83300446 61.2 -25.19233826
19.98186437 61.2 -26.26261785
18.7249167 61.2 -29.56987478
17.03993231 61.2 -32.84266595
15.30733729 61.2 -36.9551813
12.08023797 61.2 -38.13224161
9.202252087 61.2 -40.97948946
5.652389757 61.2 -41.61791069
2.060842322 61.2 -41.94940916
