# .PCD v0.7 - Point Cloud Data file format
VERSION 0.7
FIELDS x y z
SIZE 4 4 4
TYPE F F F
COUNT 1 1 1
WIDTH 1668
HEIGHT 1
VIEWPOINT 0 0 0 1 0 0 0
POINTS 1668
DATA ascii
0.8284455048 57.6 3.913269483
1.451423386 57.6 4.784701679
1.485268776 57.6 3.714024322
2.248056648 57.6 4.466121506
2.622948413 57.6 4.256775966
3.574195827 57.6 4.819245189
3.974494666 57.6 4.494818367
5.069729581 57.6 4.826783813
6.245897829 57.6 4.998875905
6.651756898 57.6 4.444561864
7.008560754 57.6 3.857470177
7.313678046 57.6 3.241930512
7.564858603 57.6 2.602482337
7.760250026 57.6 1.943841439
6.911109927 57.6 1.112007003
5.98374274 57.6 0.4413873816
2.999774106 57.6 -0.03681461486
0.9951847267 57.6 -0.09801714033
-1.966210975 57.6 0.3660797759
-6.746432461 57.6 1.866989302
-8.436051107 57.6 3.135768122
-9.943882224 57.6 4.703106028
-14.68753855 57.6 8.560152523
-16.35169626 57.6 11.51616383
-16.83367984 57.6 14.16429394
-17.67766953 57.6 17.67766953
-16.73962012 57.6 19.89434891
-16.69843755 57.6 23.70995958
-15.6096899 57.6 26.78315854
-14.53687318 57.6 30.73563597
-12.54307249 57.6 33.74420443
-10.40179754 57.6 37.58726657
-7.321595518 57.6 39.3242195
-4.214737034 57.6 42.79294325
-0.4908615314 57.6 39.99698807
-9.797174393e-15 57.2 40
-3.431892494 57.2 39.85250449
-7.180399328 57.2 41.38166098
-10.7043577 57.2 40.61301178
-13.47559414 57.2 37.66176261
-15.82432328 57.2 34.54838336
-17.74433492 57.2 31.32313168
-18.10341795 57.2 26.38685769
-19.03179852 57.2 23.1903136
-18.85615873 57.2 19.32473228
-18.93022116 57.2 16.32932107
-19.45097276 57.2 14.05914858
-18.01230081 57.2 10.79615763
-16.17614038 57.2 7.895092294
-12.12890638 57.2 4.678635475
-10.56473571 57.2 3.063716583
-6.865496963 57.2 1.365632254
-3.97562788 57.2 0.4408888292
-0.9996988187 57.2 0.02454122852
1.996236226 57.2 0.1226414726
4.94588255 57.2 0.7336523723
6.810579665 57.2 1.617406758
6.646697264 57.2 2.195772183
8.272024665 57.2 3.545928361
7.937291379 57.2 4.242570631
7.54402235 57.2 4.907924896
7.095117849 57.2 5.537084315
5.861234173 57.2 5.444807982
5.372471639 57.2 5.927609003
4.23857729 57.2 5.570858332
2.674988099 57.2 4.224267826
2.302693555 57.2 4.438198102
1.913417162 57.2 4.619397663
1.812035696 57.2 5.719836242
1.095506201 57.2 4.87851065
0.6729035425 57.2 4.954513177
0.2453383716 57.2 4.993977281
-0.1472288918 57.2 3.997289538
-0.612053376 57.2 4.962397673
-0.8284455048 57.2 3.913269483
-1.161138709 57.2 3.827761343
-0.7426343879 57.2 1.857012161
-0.8992226593 57.2 1.786448602
-1.049179365 57.2 1.702710386
-0.5956993045 57.2 0.8032075315
0 57.2 -0
0.724247083 57.2 -0.6895405447
1.561474457 57.2 -1.249718976
3.325878449 57.2 -2.222280932
3.504280377 57.2 -1.928735088
2.742629267 57.2 -1.215723942
4.728036627 57.2 -1.626551461
5.820187519 57.2 -1.457881079
5.923808509 57.2 -0.95314886
8.97561411 57.2 -0.6620810724
8.999322317 57.2 0.1104438446
11.94221672 57.2 1.176205684
11.79726585 57.2 2.196478655
14.45664099 57.2 4.000691362
15.9347632 57.2 5.923117564
17.17579657 57.2 8.123546775
19.00740283 57.2 11.07784444
19.62203552 57.2 13.81939659
17.59884711 57.2 14.80812549
16.97056275 57.2 16.97056275
15.45195703 57.2 18.36401437
14.97101298 57.2 21.25720514
14.09907474 57.2 24.19123997
13.2542079 57.2 28.02366809
11.84623513 57.2 31.86952641
9.868372027 57.2 35.65971443
6.955515742 57.2 37.35800852
3.920685613 57.2 39.80738907
0.4908615314 57.2 39.99698807
0 56.8 40
3.431892494 56.8 39.85250449
6.83847555 56.8 39.4111057
10.19462638 56.8 38.67905884
13.13870428 56.8 36.72021854
14.5750346 56.8 31.82087941
17.25143673 56.8 30.45304469
16.97195432 56.8 24.73767908
17.76301196 56.8 21.64429269
16.76102999 56.8 17.17753981
18.17301232 56.8 15.67614823
19.45097276 56.8 14.05914858
20.58548664 56.8 12.33846586
20.66951271 56.8 10.08817349
19.59284878 56.8 7.557795767
17.28774935 56.8 5.013354409
15.69256449 56.8 3.121445152
12.92079061 56.8 1.432888695
10.99668701 56.8 0.2699535138
8.983063016 56.8 -0.5518866267
8.90258859 56.8 -1.32057427
7.783519618 56.8 -1.848464866
4.747640903 56.8 -1.568408702
4.595569258 56.8 -1.9699602
4.409606322 56.8 -2.356983684
3.352898822 56.8 -2.181299954
2.365039283 56.8 -1.845694772
2.930617087 56.8 -2.722403991
0 56.8 -0
0 56.8 -0
-0.5349976199 56.8 0.8448535652
-0.460538711 56.8 0.8876396204
-1.148050297 56.8 2.771638598
-0.906017848 56.8 2.859918121
-0.8764049606 56.8 3.90280852
-0.6729035425 56.8 4.954513177
-0.1962706973 56.8 3.995181825
0.2208433376 56.8 5.995934308
0.612053376 56.8 4.962397673
1.242668257 56.8 5.869904224
1.451423386 56.8 4.784701679
1.85658597 56.8 4.642530402
2.697667978 56.8 5.359345807
3.672127779 56.8 5.959486352
3.574195827 56.8 4.819245189
3.974494666 56.8 4.494818367
5.069729581 56.8 4.826783813
6.245897829 56.8 4.998875905
6.651756898 56.8 4.444561864
7.884630848 56.8 4.339653949
9.142097557 56.8 4.05241314
8.510465928 56.8 2.927792629
8.730281279 56.8 2.186821619
6.911109927 56.8 1.112007003
5.98374274 56.8 0.4413873816
2.999774106 56.8 -0.03681461486
-0 56.8 0
-2.949316462 56.8 0.5491196639
-4.818880329 56.8 1.333563787
-8.436051107 56.8 3.135768122
-11.75186081 56.8 5.558216215
-14.68753855 56.8 8.560152523
-16.35169626 56.8 11.51616383
-16.83367984 56.8 14.16429394
-17.67766953 56.8 17.67766953
-16.73962012 56.8 19.89434891
-16.12262936 56.8 22.89237477
-15.6096899 56.8 26.78315854
-14.53687318 56.8 30.73563597
-13.23990985 56.8 35.61888245
-10.6685103 56.8 38.55104263
-7.687675294 56.8 41.29043047
-4.116719894 56.8 41.79775852
-0.5031330697 56.8 40.99691278
-9.797174393e-15 56.4 40
-3.431892494 56.4 39.85250449
-7.351361217 56.4 42.36693862
-10.95922336 56.4 41.57998825
-13.47559414 56.4 37.66176261
-16.24075284 56.4 35.45755134
-16.75853854 56.4 29.5829577
-19.23488157 56.4 28.03603629
-19.66619181 56.4 23.96332405
-19.55453498 56.4 20.04046311
-18.93022116 56.4 16.32932107
-19.45097276 56.4 14.05914858
-17.1545722 56.4 10.28205488
-16.17614038 56.4 7.895092294
-13.06189918 56.4 5.038530511
-10.56473571 56.4 3.063716583
-5.884711682 56.4 1.170541932
-3.97562788 56.4 0.4408888292
-0 56.4 0
3.992472452 56.4 0.2452829452
5.93505906 56.4 0.8803828467
6.810579665 56.4 1.617406758
9.495281806 56.4 3.136817404
9.191138517 56.4 3.939920401
7.937291379 56.4 4.242570631
8.382247056 56.4 5.453249884
7.095117849 56.4 5.537084315
5.861234173 56.4 5.444807982
5.372471639 56.4 5.927609003
4.23857729 56.4 5.570858332
3.744983339 56.4 5.913974957
3.223770977 56.4 6.213477343
2.678784027 56.4 6.467156728
2.114041645 56.4 6.673142282
1.095506201 56.4 4.87851065
0.807484251 56.4 5.945415813
0.2453383716 56.4 4.993977281
-0.2208433376 56.4 5.995934308
-0.612053376 56.4 4.962397673
-1.035556881 56.4 4.891586854
-1.451423386 56.4 4.784701679
-1.485268776 56.4 3.714024322
-1.798445319 56.4 3.572897205
-1.573769048 56.4 2.554065579
-0.5956993045 56.4 0.8032075315
-0.6624157776 56.4 0.7491363945
0 56.4 -0
0.7807372286 56.4 -0.6248594881
2.494408837 56.4 -1.666710699
2.628210283 56.4 -1.446551316
2.742629267 56.4 -1.215723942
3.782429302 56.4 -1.301241169
5.820187519 56.4 -1.457881079
6.911109927 56.4 -1.112007003
7.978323653 56.4 -0.5885165088
9.999247018 56.4 0.1227153829
9.951847267 56.4 0.9801714033
12.78037134 56.4 2.379518543
14.45664099 56.4 4.000691362
15.9347632 56.4 5.923117564
18.07978586 56.4 8.551101869
19.00740283 56.4 11.07784444
18.8044507 56.4 13.2435884
18.36401437 56.4 15.45195703
16.97056275 56.4 16.97056275
16.09578857 56.4 19.12918164
14.97101298 56.4 21.25720514
14.09907474 56.4 24.19123997
13.2542079 56.4 28.02366809
12.19465381 56.4 32.80686542
9.868372027 56.4 35.65971443
7.13855563 56.4 38.34111401
4.018702754 56.4 40.80257379
0.4908615314 56.4 39.99698807
0 56 39
3.431892494 56 39.85250449
7.009437439 56 40.39638334
10.44949204 56 39.64603531
13.13870428 56 36.72021854
14.99146416 56 32.73004739
15.77274215 56 27.84278372
17.53768613 56 25.56226839
15.8598321 56 19.32526133
17.45940624 56 17.89327063
18.17301232 56 15.67614823
19.45097276 56 14.05914858
19.72775803 56 11.82436312
19.77083825 56 9.649557248
19.59284878 56 7.557795767
17.28774935 56 5.013354409
14.71177921 56 2.92635483
12.92079061 56 1.432888695
11.99638582 56 0.2944947423
8.983063016 56 -0.5518866267
7.91341208 56 -1.173843796
6.810579665 56 -1.617406758
5.697169084 56 -1.882090442
5.51468311 56 -2.36395224
2.645763793 56 -1.41419021
2.514674117 56 -1.635974965
1.576692855 56 -1.230463181
0.7326542717 56 -0.6806009978
0 56 -0
0 56 -0
-0.5349976199 56 0.8448535652
-1.381616133 56 2.662918861
-1.148050297 56 2.771638598
-1.208023797 56 3.813224161
-0.8764049606 56 3.90280852
-0.6729035425 56 4.954513177
-0.294406046 56 5.992772737
0.2208433376 56 5.995934308
0.612053376 56 4.962397673
1.242668257 56 5.869904224
1.451423386 56 4.784701679
1.85658597 56 4.642530402
2.697667978 56 5.359345807
3.147538096 56 5.108131159
4.169895131 56 5.62245272
4.636910443 56 5.243954762
6.518223747 56 6.205864903
5.4651606 56 4.374016417
7.483226511 56 5.000132097
7.884630848 56 4.339653949
9.142097557 56 4.05241314
9.456073254 56 3.253102922
8.730281279 56 2.186821619
8.885712763 56 1.42972329
6.981033197 56 0.5149519452
2.999774106 56 -0.03681461486
1.990369453 56 -0.1960342807
-0.9831054874 56 0.183039888
-5.782656395 56 1.600276545
-7.498712095 56 2.787349442
-9.943882224 56 4.703106028
-15.55151141 56 9.063690907
-14.71652664 56 10.36454745
-16.06851258 56 13.5204624
-18.38477631 56 18.38477631
-17.38345166 56 20.65951617
-16.69843755 56 23.70995958
-15.6096899 56 26.78315854
-14.53687318 56 30.73563597
-12.89149117 56 34.68154344
-10.40179754 56 37.58726657
-7.687675294 56 41.29043047
-4.116719894 56 41.79775852
-0.4785899931 56 38.99706337
-1.004210375e-14 55.6 41
-3.431892494 55.6 39.85250449
-7.351361217 55.6 42.36693862
-10.7043577 55.6 40.61301178
-13.13870428 55.6 36.72021854
-15.82432328 55.6 34.54838336
-17.25143673 55.6 30.45304469
-18.66914976 55.6 27.21144699
-19.03179852 55.6 23.1903136
-18.85615873 55.6 19.32473228
-19.68743001 55.6 16.98249392
-19.45097276 55.6 14.05914858
-18.87002942 55.6 11.31026037
-16.17614038 55.6 7.895092294
-13.06189918 55.6 5.038530511
-9.604305194 55.6 2.785196894
-5.884711682 55.6 1.170541932
-1.98781394 55.6 0.2204444146
0.9996988187 55.6 -0.02454122852
2.994354339 55.6 0.1839622089
5.93505906 55.6 0.8803828467
6.810579665 55.6 1.617406758
9.495281806 55.6 3.136817404
8.272024665 55.6 3.545928361
9.701133908 55.6 5.185364105
9.220471761 55.6 5.998574873
7.883464276 55.6 6.152315906
5.861234173 55.6 5.444807982
6.044030594 55.6 6.668560128
4.23857729 55.6 5.570858332
3.744983339 55.6 5.913974957
3.223770977 55.6 6.213477343
2.678784027 55.6 6.467156728
2.114041645 55.6 6.673142282
1.314607441 55.6 5.85421278
0.9420649595 55.6 6.936318448
0.294406046 55.6 5.992772737
-0.2944577835 55.6 7.994579077
-0.8568747264 55.6 6.947356742
-0.8284455048 55.6 3.913269483
-1.741708064 55.6 5.741642014
-1.85658597 55.6 4.642530402
-1.798445319 55.6 3.572897205
-1.573769048 55.6 2.554065579
-1.787097913 55.6 2.409622594
-1.987247333 55.6 2.247409184
-0.724247083 55.6 0.6895405447
-0.7807372286 55.6 0.6248594881
1.662939225 55.6 -1.111140466
1.752140188 55.6 -0.9643675442
2.742629267 55.6 -1.215723942
4.728036627 55.6 -1.626551461
4.850156266 55.6 -1.2149009
5.923808509 55.6 -0.95314886
7.978323653 55.6 -0.5885165088
7.999397615 55.6 0.09817230629
10.94703199 55.6 1.078188544
12.78037134 55.6 2.379518543
14.45664099 55.6 4.000691362
15.9347632 55.6 5.923117564
18.07978586 55.6 8.551101869
19.00740283 55.6 11.07784444
19.62203552 55.6 13.81939659
17.59884711 55.6 14.80812549
16.26345597 55.6 16.26345597
15.45195703 55.6 18.36401437
14.39520479 55.6 20.43962033
14.60261313 55.6 25.05521283
13.68176299 55.6 28.92765738
11.84623513 55.6 31.86952641
9.868372027 55.6 35.65971443
7.13855563 55.6 38.34111401
4.018702754 55.6 40.80257379
0.5031330697 55.6 40.99691278
0 55.2 41
3.346095181 55.2 38.85619188
6.83847555 55.2 39.4111057
10.44949204 55.2 39.64603531
12.46492458 55.2 34.83713041
14.5750346 55.2 31.82087941
16.26564034 55.2 28.71287071
16.97195432 55.2 24.73767908
17.12861867 55.2 20.87128224
18.15778248 55.2 18.60900146
18.17301232 55.2 15.67614823
20.26142996 55.2 14.64494644
19.72775803 55.2 11.82436312
20.66951271 55.2 10.08817349
18.65985598 55.2 7.197900731
17.28774935 55.2 5.013354409
15.69256449 55.2 3.121445152
13.91469758 55.2 1.543110902
10.99668701 55.2 0.2699535138
9.981181129 55.2 -0.613207363
7.91341208 55.2 -1.173843796
6.810579665 55.2 -1.617406758
4.747640903 55.2 -1.568408702
3.676455407 55.2 -1.57596816
3.527685057 55.2 -1.885586947
1.676449411 55.2 -1.090649977
1.576692855 55.2 -1.230463181
0.7326542717 55.2 -0.6806009978
0 55.2 -0
-0.6055110414 55.2 0.7958369046
-1.60499286 55.2 2.534560696
-0.9210774219 55.2 1.775279241
-1.530733729 55.2 3.69551813
-1.208023797 55.2 3.813224161
-1.314607441 55.2 5.85421278
-0.6729035425 55.2 4.954513177
-0.294406046 55.2 5.992772737
0.2576505606 55.2 6.995256692
0.8568747264 55.2 6.947356742
1.242668257 55.2 5.869904224
1.451423386 55.2 4.784701679
2.227903164 55.2 5.571036483
3.147279308 55.2 6.252570108
3.672127779 55.2 5.959486352
4.765594436 55.2 6.425660252
3.974494666 55.2 4.494818367
6.518223747 55.2 6.205864903
7.026635057 55.2 5.623735393
7.483226511 55.2 5.000132097
9.636771036 55.2 5.304021493
10.05630731 55.2 4.457654454
10.40168058 55.2 3.578413214
8.730281279 55.2 2.186821619
9.873014182 55.2 1.588581433
6.981033197 55.2 0.5149519452
4.999623509 55.2 -0.06135769143
0.9951847267 55.2 -0.09801714033
-0.9831054874 55.2 0.183039888
-4.818880329 55.2 1.333563787
-7.498712095 55.2 2.787349442
-11.75186081 55.2 5.558216215
-13.8235657 55.2 8.05661414
-16.35169626 55.2 11.51616383
-17.59884711 55.2 14.80812549
-17.67766953 55.2 17.67766953
-17.38345166 55.2 20.65951617
-16.69843755 55.2 23.70995958
-16.11322828 55.2 27.6471314
-14.53687318 55.2 30.73563597
-12.54307249 55.2 33.74420443
-10.40179754 55.2 37.58726657
-7.504635406 55.2 40.30732498
-4.116719894 55.2 41.79775852
-0.5031330697 55.2 40.99691278
-1.004210375e-14 54.8 41
-3.431892494 54.8 39.85250449
-7.351361217 54.8 42.36693862
-10.95922336 54.8 41.57998825
-13.47559414 54.8 37.66176261
-16.24075284 54.8 35.45755134
-17.25143673 54.8 30.45304469
-18.66914976 54.8 27.21144699
-19.66619181 54.8 23.96332405
-20.25291123 54.8 20.75619393
-21.2018477 54.8 18.2888396
-19.45097276 54.8 14.05914858
-17.1545722 54.8 10.28205488
-16.17614038 54.8 7.895092294
-13.06189918 54.8 5.038530511
-9.604305194 54.8 2.785196894
-5.884711682 54.8 1.170541932
-1.98781394 54.8 0.2204444146
-0 54.8 0
3.992472452 54.8 0.2452829452
5.93505906 54.8 0.8803828467
9.729399522 54.8 2.310581083
10.44480999 54.8 3.450499144
11.02936622 54.8 4.727904481
10.58305517 54.8 5.656760842
10.89692117 54.8 7.089224849
8.671810704 54.8 6.767547496
7.326542717 54.8 6.806009978
6.715589548 54.8 7.409511254
4.844088331 54.8 6.366695237
4.279980959 54.8 6.758828522
3.684309688 54.8 7.101116963
3.061467459 54.8 7.39103626
2.416047595 54.8 7.626448323
1.314607441 54.8 5.85421278
0.9420649595 54.8 6.936318448
0.3434737203 54.8 6.991568193
-0.2208433376 54.8 5.995934308
-0.8568747264 54.8 6.947356742
-1.449779633 54.8 6.848221595
-1.741708064 54.8 5.741642014
-1.85658597 54.8 4.642530402
-1.798445319 54.8 3.572897205
-2.098358731 54.8 3.405420772
-2.382797218 54.8 3.212830126
-1.324831555 54.8 1.498272789
-0.724247083 54.8 0.6895405447
0 54.8 -0
0.8314696123 54.8 -0.555570233
1.752140188 54.8 -0.9643675442
2.742629267 54.8 -1.215723942
3.782429302 54.8 -1.301241169
4.850156266 54.8 -1.2149009
4.936507091 54.8 -0.7942907167
7.978323653 54.8 -0.5885165088
8.999322317 54.8 0.1104438446
9.951847267 54.8 0.9801714033
12.78037134 54.8 2.379518543
14.45664099 54.8 4.000691362
14.99742419 54.8 5.574698884
17.17579657 54.8 8.123546775
19.00740283 54.8 11.07784444
19.62203552 54.8 13.81939659
17.59884711 54.8 14.80812549
16.97056275 54.8 16.97056275
14.80812549 54.8 17.59884711
14.39520479 54.8 20.43962033
14.60261313 54.8 25.05521283
13.2542079 54.8 28.02366809
12.54307249 54.8 33.74420443
9.334946512 54.8 33.7321623
7.13855563 54.8 38.34111401
4.116719894 54.8 41.79775852
0.4908615314 54.8 39.99698807
0 54.4 41
3.431892494 54.4 39.85250449
6.83847555 54.4 39.4111057
10.44949204 54.4 39.64603531
12.80181443 54.4 35.77867448
14.99146416 54.4 32.73004739
16.26564034 54.4 28.71287071
16.97195432 54.4 24.73767908
18.39740524 54.4 22.41730315
17.45940624 54.4 17.89327063
18.17301232 54.4 15.67614823
18.64051556 54.4 13.47335072
19.72775803 54.4 11.82436312
19.77083825 54.4 9.649557248
19.59284878 54.4 7.557795767
17.28774935 54.4 5.013354409
13.73099393 54.4 2.731264508
12.92079061 54.4 1.432888695
10.99668701 54.4 0.2699535138
7.984944903 54.4 -0.4905658904
6.92423557 54.4 -1.027113321
5.837639713 54.4 -1.38634865
4.747640903 54.4 -1.568408702
3.676455407 54.4 -1.57596816
1.763842529 54.4 -0.9427934737
2.514674117 54.4 -1.635974965
0 54.4 -0
-0.7326542717 54.4 0.6806009978
-0.6715589548 54.4 0.7409511254
-1.211022083 54.4 1.591673809
-1.60499286 54.4 2.534560696
-1.381616133 54.4 2.662918861
-1.530733729 54.4 3.69551813
-1.510029747 54.4 4.766530202
-1.095506201 54.4 4.87851065
-0.9420649595 54.4 6.936318448
-0.3925413946 54.4 7.99036365
0.2944577835 54.4 7.994579077
0.8568747264 54.4 6.947356742
1.449779633 54.4 6.848221595
1.741708064 54.4 5.741642014
2.599220358 54.4 6.499542563
3.596890637 54.4 7.14579441
3.672127779 54.4 5.959486352
4.169895131 54.4 5.62245272
5.299326221 54.4 5.993091156
6.518223747 54.4 6.205864903
7.026635057 54.4 5.623735393
7.483226511 54.4 5.000132097
9.636771036 54.4 5.304021493
10.97051707 54.4 4.862895768
10.40168058 54.4 3.578413214
10.67034379 54.4 2.672781979
10.8603156 54.4 1.747439577
7.978323653 54.4 0.5885165088
5.999548211 54.4 -0.07362922971
1.990369453 54.4 -0.1960342807
-0.9831054874 54.4 0.183039888
-3.855104263 54.4 1.06685103
-8.436051107 54.4 3.135768122
-10.84787152 54.4 5.130661121
-13.8235657 54.4 8.05661414
-15.53411145 54.4 10.94035564
-17.59884711 54.4 14.80812549
-17.67766953 54.4 17.67766953
-17.38345166 54.4 20.65951617
-16.69843755 54.4 23.70995958
-15.6096899 54.4 26.78315854
-14.53687318 54.4 30.73563597
-12.89149117 54.4 34.68154344
-10.6685103 54.4 38.55104263
-7.504635406 54.4 40.30732498
-4.214737034 54.4 42.79294325
-0.515404608 54.4 41.99683748
-9.797174393e-15 54 40
-3.603487118 54 41.84512971
-7.180399328 54 41.38166098
-10.95922336 54 41.57998825
-13.47559414 54 37.66176261
-15.82432328 54 34.54838336
-17.25143673 54 30.45304469
-18.66914976 54 27.21144699
-20.30058509 54 24.73633451
-20.25291123 54 20.75619393
-19.68743001 54 16.98249392
-19.45097276 54 14.05914858
-18.01230081 54 10.79615763
-16.17614038 54 7.895092294
-12.12890638 54 4.678635475
-9.604305194 54 2.785196894
-6.865496963 54 1.365632254
-1.98781394 54 0.2204444146
1.999397637 54 -0.04908245705
4.990590565 54 0.3066036815
7.91341208 54 1.173843796
9.729399522 54 2.310581083
11.39433817 54 3.764180885
11.02936622 54 4.727904481
10.58305517 54 5.656760842
10.89692117 54 7.089224849
9.460157132 54 7.382779087
7.326542717 54 6.806009978
5.372471639 54 5.927609003
5.449599373 54 7.162532141
4.279980959 54 6.758828522
3.684309688 54 7.101116963
2.678784027 54 6.467156728
2.114041645 54 6.673142282
1.752809921 54 7.80561704
0.9420649595 54 6.936318448
0.3925413946 54 7.99036365
-0.2576505606 54 6.995256692
-0.9792854016 54 7.939836277
-1.449779633 54 6.848221595
-1.741708064 54 5.741642014
-2.227903164 54 5.571036483
-2.248056648 54 4.466121506
-2.098358731 54 3.405420772
-2.382797218 54 3.212830126
-1.987247333 54 2.247409184
-0.724247083 54 0.6895405447
0 54 -0
-0.8314696123 54 0.555570233
0 54 -0
2.742629267 54 -1.215723942
3.782429302 54 -1.301241169
4.850156266 54 -1.2149009
5.923808509 54 -0.95314886
6.981033197 54 -0.5149519452
8.999322317 54 0.1104438446
10.94703199 54 1.078188544
12.78037134 54 2.379518543
14.45664099 54 4.000691362
16.87210221 54 6.271536244
18.07978586 54 8.551101869
19.00740283 54 11.07784444
17.98686589 54 12.66778021
18.36401437 54 15.45195703
16.26345597 54 16.26345597
16.09578857 54 19.12918164
14.39520479 54 20.43962033
14.60261313 54 25.05521283
13.2542079 54 28.02366809
11.84623513 54 31.86952641
9.868372027 54 35.65971443
7.13855563 54 38.34111401
4.116719894 54 41.79775852
0.5031330697 54 40.99691278
0 53.6 40
3.431892494 53.6 39.85250449
7.180399328 53.6 41.38166098
9.939760725 53.6 37.71208237
13.13870428 53.6 36.72021854
14.5750346 53.6 31.82087941
16.26564034 53.6 28.71287071
16.97195432 53.6 24.73767908
17.12861867 53.6 20.87128224
18.15778248 53.6 18.60900146
18.17301232 53.6 15.67614823
18.64051556 53.6 13.47335072
19.72775803 53.6 11.82436312
20.66951271 53.6 10.08817349
19.59284878 53.6 7.557795767
17.28774935 53.6 5.013354409
14.71177921 53.6 2.92635483
13.91469758 53.6 1.543110902
10.99668701 53.6 0.2699535138
8.983063016 53.6 -0.5518866267
6.92423557 53.6 -1.027113321
4.864699761 53.6 -1.155290541
4.747640903 53.6 -1.568408702
3.676455407 53.6 -1.57596816
1.763842529 53.6 -0.9427934737
0.8382247056 53.6 -0.5453249884
0.7883464276 53.6 -0.6152315906
0 53.6 -0
-0.6715589548 53.6 0.7409511254
-1.816533124 53.6 2.387510714
-2.13999048 53.6 3.379414261
-1.381616133 53.6 2.662918861
-1.913417162 53.6 4.619397663
-1.812035696 53.6 5.719836242
-1.533708681 53.6 6.82991491
-0.9420649595 53.6 6.936318448
-0.3925413946 53.6 7.99036365
0.3312650065 53.6 8.993901461
0.8568747264 53.6 6.947356742
1.65689101 53.6 7.826538966
2.322277418 53.6 7.655522686
2.599220358 53.6 6.499542563
3.147279308 53.6 6.252570108
4.196717461 53.6 6.810841545
4.169895131 53.6 5.62245272
5.299326221 53.6 5.993091156
6.518223747 53.6 6.205864903
7.807372286 53.6 6.248594881
8.314696123 53.6 5.55570233
9.636771036 53.6 5.304021493
11.88472682 53.6 5.268137082
11.3472879 53.6 3.903723506
11.64037504 53.6 2.915762159
9.873014182 53.6 1.588581433
8.97561411 53.6 0.6620810724
5.999548211 53.6 -0.07362922971
2.98555418 53.6 -0.294051421
-0.9831054874 53.6 0.183039888
-4.818880329 53.6 1.333563787
-7.498712095 53.6 2.787349442
-10.84787152 53.6 5.130661121
-13.8235657 53.6 8.05661414
-16.35169626 53.6 11.51616383
-18.36401437 53.6 15.45195703
-18.38477631 53.6 18.38477631
-17.38345166 53.6 20.65951617
-17.27424574 53.6 24.52754439
-15.6096899 53.6 26.78315854
-14.53687318 53.6 30.73563597
-12.89149117 53.6 34.68154344
-10.13508478 53.6 36.6234905
-7.504635406 53.6 40.30732498
-4.116719894 53.6 41.79775852
-0.4908615314 53.6 39.99698807
-9.552245033e-15 53.2 39
-3.431892494 53.2 39.85250449
-7.180399328 53.2 41.38166098
-10.7043577 53.2 40.61301178
-13.47559414 53.2 37.66176261
-15.40789372 53.2 33.63921537
-17.25143673 53.2 30.45304469
-18.66914976 53.2 27.21144699
-20.30058509 53.2 24.73633451
-20.95128748 53.2 21.47192476
-19.68743001 53.2 16.98249392
-21.07188715 53.2 15.23074429
-18.87002942 53.2 11.31026037
-16.17614038 53.2 7.895092294
-14.92788478 53.2 5.758320585
-9.604305194 53.2 2.785196894
-4.903926402 53.2 0.9754516101
-1.98781394 53.2 0.2204444146
0.9996988187 53.2 -0.02454122852
4.990590565 53.2 0.3066036815
7.91341208 53.2 1.173843796
9.729399522 53.2 2.310581083
11.39433817 53.2 3.764180885
11.94848007 53.2 5.121896521
11.46497644 53.2 6.128157579
10.05869647 53.2 6.543899861
9.460157132 53.2 7.382779087
7.326542717 53.2 6.806009978
6.715589548 53.2 7.409511254
6.055110414 53.2 7.958369046
4.814978579 53.2 7.603682087
4.144848399 53.2 7.988756584
3.061467459 53.2 7.39103626
2.416047595 53.2 7.626448323
1.533708681 53.2 6.82991491
0.9420649595 53.2 6.936318448
0.3925413946 53.2 7.99036365
-0.2576505606 53.2 6.995256692
-0.8568747264 53.2 6.947356742
-1.449779633 53.2 6.848221595
-2.031992741 53.2 6.69858235
-2.599220358 53.2 6.499542563
-2.248056648 53.2 4.466121506
-2.098358731 53.2 3.405420772
-1.787097913 53.2 2.409622594
-1.987247333 53.2 2.247409184
-1.448494166 53.2 1.379081089
-0.7807372286 53.2 0.6248594881
-0.8314696123 53.2 0.555570233
1.752140188 53.2 -0.9643675442
1.828419511 53.2 -0.810482628
1.891214651 53.2 -0.6506205843
3.880125013 53.2 -0.9719207196
4.936507091 53.2 -0.7942907167
5.98374274 53.2 -0.4413873816
7.999397615 53.2 0.09817230629
8.95666254 53.2 0.882154263
12.78037134 53.2 2.379518543
14.45664099 53.2 4.000691362
16.87210221 53.2 6.271536244
17.17579657 53.2 8.123546775
19.87137569 53.2 11.58138283
18.8044507 53.2 13.2435884
19.12918164 53.2 16.09578857
16.97056275 53.2 16.97056275
16.09578857 53.2 19.12918164
14.97101298 53.2 21.25720514
14.60261313 53.2 25.05521283
13.2542079 53.2 28.02366809
12.54307249 53.2 33.74420443
9.334946512 53.2 33.7321623
7.321595518 53.2 39.3242195
3.920685613 53.2 39.80738907
0.4908615314 53.2 39.99698807
0 52.8 41
3.346095181 52.8 38.85619188
6.83847555 52.8 39.4111057
10.19462638 52.8 38.67905884
12.46492458 52.8 34.83713041
14.5750346 52.8 31.82087941
16.26564034 52.8 28.71287071
17.53768613 52.8 25.56226839
17.76301196 52.8 21.64429269
17.45940624 52.8 17.89327063
18.17301232 52.8 15.67614823
20.26142996 52.8 14.64494644
21.44321525 52.8 12.8525686
19.77083825 52.8 9.649557248
19.59284878 52.8 7.557795767
18.24817987 52.8 5.291874098
15.69256449 52.8 3.121445152
12.92079061 52.8 1.432888695
10.99668701 52.8 0.2699535138
8.983063016 52.8 -0.5518866267
6.92423557 52.8 -1.027113321
5.837639713 52.8 -1.38634865
5.697169084 52.8 -1.882090442
2.757341555 52.8 -1.18197612
1.763842529 52.8 -0.9427934737
0.8382247056 52.8 -0.5453249884
0.7883464276 52.8 -0.6152315906
0 52.8 -0
-1.34311791 52.8 1.481902251
-2.422044166 52.8 3.183347618
-2.13999048 52.8 3.379414261
-1.842154844 52.8 3.550558482
-1.530733729 52.8 3.69551813
-1.812035696 52.8 5.719836242
-1.314607441 52.8 5.85421278
-0.9420649595 52.8 6.936318448
-0.3434737203 52.8 6.991568193
0.2944577835 52.8 7.994579077
0.8568747264 52.8 6.947356742
1.449779633 52.8 6.848221595
2.031992741 52.8 6.69858235
2.599220358 52.8 6.499542563
3.596890637 52.8 7.14579441
4.196717461 52.8 6.810841545
5.36129374 52.8 7.228867783
5.961741998 52.8 6.742227551
5.793976664 52.8 5.516324358
7.807372286 52.8 6.248594881
9.146165735 52.8 6.111272563
10.51284113 52.8 5.786205265
10.97051707 52.8 4.862895768
12.29289523 52.8 4.229033798
12.61040629 52.8 3.158742339
9.873014182 52.8 1.588581433
9.972904567 52.8 0.735645636
6.999472913 52.8 -0.085900768
2.98555418 52.8 -0.294051421
-0 52.8 0
-3.855104263 52.8 1.06685103
-7.498712095 52.8 2.787349442
-10.84787152 52.8 5.130661121
-13.8235657 52.8 8.05661414
-15.53411145 52.8 10.94035564
-16.83367984 52.8 14.16429394
-18.38477631 52.8 18.38477631
-18.0272832 52.8 21.42468344
-17.85005393 52.8 25.34512921
-15.6096899 52.8 26.78315854
-14.53687318 52.8 30.73563597
-12.54307249 52.8 33.74420443
-10.13508478 52.8 36.6234905
-7.321595518 52.8 39.3242195
-4.018702754 52.8 40.80257379
-0.515404608 52.8 41.99683748
-9.797174393e-15 52.4 40
-3.431892494 52.4 39.85250449
-7.351361217 52.4 42.36693862
-10.7043577 52.4 40.61301178
-13.13870428 52.4 36.72021854
-15.82432328 52.4 34.54838336
-17.25143673 52.4 30.45304469
-18.10341795 52.4 26.38685769
-20.30058509 52.4 24.73633451
-20.25291123 52.4 20.75619393
-21.2018477 52.4 18.2888396
-20.26142996 52.4 14.64494644
-18.87002942 52.4 11.31026037
-17.07481485 52.4 8.333708532
-14.92788478 52.4 5.758320585
-10.56473571 52.4 3.063716583
-5.884711682 52.4 1.170541932
-2.98172091 52.4 0.3306666219
2.999096456 52.4 -0.07362368557
5.988708677 52.4 0.3679244178
7.91341208 52.4 1.173843796
10.70233947 52.4 2.541639191
11.39433817 52.4 3.764180885
11.94848007 52.4 5.121896521
11.46497644 52.4 6.128157579
10.89692117 52.4 7.089224849
9.460157132 52.4 7.382779087
8.059196988 52.4 7.486610976
6.044030594 52.4 6.668560128
5.449599373 52.4 7.162532141
4.279980959 52.4 6.758828522
4.144848399 52.4 7.988756584
3.444150891 52.4 8.314915793
2.416047595 52.4 7.626448323
1.752809921 52.4 7.80561704
1.211226377 52.4 8.918123719
0.3925413946 52.4 7.99036365
-0.2944577835 52.4 7.994579077
-0.9792854016 52.4 7.939836277
-1.449779633 52.4 6.848221595
-2.031992741 52.4 6.69858235
-2.599220358 52.4 6.499542563
-2.697667978 52.4 5.359345807
-2.622948413 52.4 4.256775966
-2.978496522 52.4 4.016037657
-3.312078888 52.4 3.745681973
-1.448494166 52.4 1.379081089
-0.7807372286 52.4 0.6248594881
0.8314696123 52.4 -0.555570233
0 52.4 -0
2.742629267 52.4 -1.215723942
3.782429302 52.4 -1.301241169
4.850156266 52.4 -1.2149009
5.923808509 52.4 -0.95314886
6.981033197 52.4 -0.5149519452
6.999472913 52.4 0.085900768
9.951847267 52.4 0.9801714033
12.78037134 52.4 2.379518543
14.45664099 52.4 4.000691362
15.9347632 52.4 5.923117564
17.17579657 52.4 8.123546775
19.87137569 52.4 11.58138283
18.8044507 52.4 13.2435884
18.36401437 52.4 15.45195703
16.97056275 52.4 16.97056275
16.09578857 52.4 19.12918164
15.54682117 52.4 22.07478996
15.10615151 52.4 25.91918568
13.2542079 52.4 28.02366809
11.84623513 52.4 31.86952641
9.601659269 52.4 34.69593837
6.955515742 52.4 37.35800852
4.116719894 52.4 41.79775852
0.5031330697 52.4 40.99691278
0 52 40
3.431892494 52 39.85250449
6.83847555 52 39.4111057
10.19462638 52 38.67905884
12.46492458 52 34.83713041
14.99146416 52 32.73004739
15.77274215 52 27.84278372
16.40622251 52 23.91308978
17.12861867 52 20.87128224
17.45940624 52 17.89327063
18.93022116 52 16.32932107
19.45097276 52 14.05914858
19.72775803 52 11.82436312
21.56818718 52 10.52678972
19.59284878 52 7.557795767
17.28774935 52 5.013354409
15.69256449 52 3.121445152
12.92079061 52 1.432888695
10.99668701 52 0.2699535138
8.983063016 52 -0.5518866267
6.92423557 52 -1.027113321
4.864699761 52 -1.155290541
4.747640903 52 -1.568408702
3.676455407 52 -1.57596816
2.645763793 52 -1.41419021
1.676449411 52 -1.090649977
0 52 -0
0.7326542717 52 -0.6806009978
-2.014676865 52 2.222853376
-2.422044166 52 3.183347618
-2.13999048 52 3.379414261
-2.302693555 52 4.438198102
-1.530733729 52 3.69551813
-2.114041645 52 6.673142282
-1.533708681 52 6.82991491
-1.076645668 52 7.927221083
-0.4416090689 52 8.989159106
0.3312650065 52 8.993901461
0.8568747264 52 6.947356742
1.449779633 52 6.848221595
2.031992741 52 6.69858235
2.599220358 52 6.499542563
3.596890637 52 7.14579441
4.721307144 52 7.662196738
4.765594436 52 6.425660252
5.961741998 52 6.742227551
6.518223747 52 6.205864903
7.026635057 52 5.623735393
9.146165735 52 6.111272563
11.38891122 52 6.268389037
11.88472682 52 5.268137082
13.23850256 52 4.55434409
13.58043754 52 3.401722519
11.84761702 52 1.90629772
8.97561411 52 0.6620810724
5.999548211 52 -0.07362922971
2.98555418 52 -0.294051421
-0.9831054874 52 0.183039888
-4.818880329 52 1.333563787
-8.436051107 52 3.135768122
-11.75186081 52 5.558216215
-13.8235657 52 8.05661414
-16.35169626 52 11.51616383
-17.59884711 52 14.80812549
-19.09188309 52 19.09188309
-18.67111474 52 22.1898507
-18.42586213 52 26.16271402
-15.6096899 52 26.78315854
-14.53687318 52 30.73563597
-12.54307249 52 33.74420443
-9.868372027 52 35.65971443
-7.321595518 52 39.3242195
-4.116719894 52 41.79775852
-0.515404608 52 41.99683748
-9.797174393e-15 51.6 40
-3.431892494 51.6 39.85250449
-7.009437439 51.6 40.39638334
-10.44949204 51.6 39.64603531
-12.80181443 51.6 35.77867448
-15.40789372 51.6 33.63921537
-17.25143673 51.6 30.45304469
-18.66914976 51.6 27.21144699
-19.66619181 51.6 23.96332405
-20.95128748 51.6 21.47192476
-21.2018477 51.6 18.2888396
-19.45097276 51.6 14.05914858
-18.87002942 51.6 11.31026037
-17.97348931 51.6 8.772324771
-13.99489198 51.6 5.398425548
-10.56473571 51.6 3.063716583
-5.884711682 51.6 1.170541932
-3.97562788 51.6 0.4408888292
2.999096456 51.6 -0.07362368557
4.990590565 51.6 0.3066036815
7.91341208 51.6 1.173843796
11.67527943 51.6 2.772697299
12.34386635 51.6 4.077862625
12.86759392 51.6 5.515888561
12.3468977 51.6 6.599554316
10.89692117 51.6 7.089224849
10.24850356 51.6 7.998010678
7.326542717 51.6 6.806009978
7.387148503 51.6 8.150462379
6.055110414 51.6 7.958369046
4.279980959 51.6 6.758828522
4.144848399 51.6 7.988756584
3.061467459 51.6 7.39103626
2.114041645 51.6 6.673142282
1.533708681 51.6 6.82991491
1.076645668 51.6 7.927221083
0.3925413946 51.6 7.99036365
-0.3312650065 51.6 8.993901461
-1.101696077 51.6 8.932315811
-1.65689101 51.6 7.826538966
-2.322277418 51.6 7.655522686
-2.970537552 51.6 7.428048644
-2.697667978 51.6 5.359345807
-2.622948413 51.6 4.256775966
-2.978496522 51.6 4.016037657
-1.987247333 51.6 2.247409184
-2.896988332 51.6 2.758162179
-0.7807372286 51.6 0.6248594881
-0.8314696123 51.6 0.555570233
0.8760700942 51.6 -0.4821837721
0.9142097557 51.6 -0.405241314
2.836821976 51.6 -0.9759308765
3.880125013 51.6 -0.9719207196
6.911109927 51.6 -1.112007003
5.98374274 51.6 -0.4413873816
6.999472913 51.6 0.085900768
9.951847267 51.6 0.9801714033
11.79726585 51.6 2.196478655
14.45664099 51.6 4.000691362
15.9347632 51.6 5.923117564
18.98377516 51.6 8.978656962
19.87137569 51.6 11.58138283
20.43962033 51.6 14.39520479
18.36401437 51.6 15.45195703
17.67766953 51.6 17.67766953
16.09578857 51.6 19.12918164
15.54682117 51.6 22.07478996
14.09907474 51.6 24.19123997
13.68176299 51.6 28.92765738
11.84623513 51.6 31.86952641
9.601659269 51.6 34.69593837
7.13855563 51.6 38.34111401
4.018702754 51.6 40.80257379
0.4908615314 51.6 39.99698807
0 51.2 41
3.517689806 51.2 40.8488171
6.83847555 51.2 39.4111057
9.684895065 51.2 36.7451059
12.46492458 51.2 34.83713041
14.15860504 51.2 30.91171143
15.77274215 51.2 27.84278372
16.97195432 51.2 24.73767908
17.76301196 51.2 21.64429269
17.45940624 51.2 17.89327063
18.93022116 51.2 16.32932107
19.45097276 51.2 14.05914858
20.58548664 51.2 12.33846586
20.66951271 51.2 10.08817349
19.59284878 51.2 7.557795767
18.24817987 51.2 5.291874098
14.71177921 51.2 2.92635483
12.92079061 51.2 1.432888695
9.996988187 51.2 0.2454122852
7.984944903 51.2 -0.4905658904
7.91341208 51.2 -1.173843796
4.864699761 51.2 -1.155290541
3.798112722 51.2 -1.254726962
2.757341555 51.2 -1.18197612
1.763842529 51.2 -0.9427934737
0 51.2 -0
-0.7883464276 51.2 0.6152315906
-2.197962815 51.2 2.041802993
-1.34311791 51.2 1.481902251
-2.422044166 51.2 3.183347618
-3.209985719 51.2 5.069121391
-2.763232266 51.2 5.325837722
-2.296100594 51.2 5.543277195
-2.114041645 51.2 6.673142282
-1.314607441 51.2 5.85421278
-1.076645668 51.2 7.927221083
-0.3925413946 51.2 7.99036365
0.4048794524 51.2 10.99254623
0.9792854016 51.2 7.939836277
1.65689101 51.2 7.826538966
1.741708064 51.2 5.741642014
2.599220358 51.2 6.499542563
4.046501967 51.2 8.039018711
4.196717461 51.2 6.810841545
4.169895131 51.2 5.62245272
5.961741998 51.2 6.742227551
7.24247083 51.2 6.895405447
8.588109514 51.2 6.87345437
9.146165735 51.2 6.111272563
10.51284113 51.2 5.786205265
12.79893658 51.2 5.673378396
13.23850256 51.2 4.55434409
13.58043754 51.2 3.401722519
10.8603156 51.2 1.747439577
8.97561411 51.2 0.6620810724
4.999623509 51.2 -0.06135769143
2.98555418 51.2 -0.294051421
-0.9831054874 51.2 0.183039888
-5.782656395 51.2 1.600276545
-9.373390119 51.2 3.484186802
-12.6558501 51.2 5.985771308
-15.55151141 51.2 9.063690907
-17.16928108 51.2 12.09197202
-18.36401437 51.2 15.45195703
-19.09188309 51.2 19.09188309
-18.0272832 51.2 21.42468344
-17.85005393 51.2 25.34512921
-16.61676666 51.2 28.51110425
-14.10931808 51.2 29.83164667
-12.54307249 51.2 33.74420443
-10.40179754 51.2 37.58726657
-7.13855563 51.2 38.34111401
-4.214737034 51.2 42.79294325
-0.5031330697 51.2 40.99691278
-1.004210375e-14 50.8 41
-3.517689806 50.8 40.8488171
-7.180399328 50.8 41.38166098
-10.44949204 50.8 39.64603531
-12.80181443 50.8 35.77867448
-15.40789372 50.8 33.63921537
-17.25143673 50.8 30.45304469
-18.10341795 50.8 26.38685769
-20.30058509 50.8 24.73633451
-21.64966373 50.8 22.18765558
-20.44463886 50.8 17.63566676
-19.45097276 50.8 14.05914858
-18.87002942 50.8 11.31026037
-17.07481485 50.8 8.333708532
-13.99489198 50.8 5.398425548
-11.52516623 50.8 3.342236273
-6.865496963 50.8 1.365632254
-1.98781394 50.8 0.2204444146
0.9996988187 50.8 -0.02454122852
6.98682679 50.8 0.4292451541
8.90258859 50.8 1.32057427
11.67527943 50.8 2.772697299
12.34386635 50.8 4.077862625
13.78670778 50.8 5.909880601
13.22881897 50.8 7.070951052
10.05869647 50.8 6.543899861
8.671810704 50.8 6.767547496
8.059196988 50.8 7.486610976
7.387148503 50.8 8.150462379
6.660621455 50.8 8.754205951
4.814978579 50.8 7.603682087
4.144848399 50.8 7.988756584
3.061467459 50.8 7.39103626
2.718053544 50.8 8.579754363
1.752809921 50.8 7.80561704
1.076645668 50.8 7.927221083
0.4416090689 50.8 8.989159106
-0.3312650065 50.8 8.993901461
-1.101696077 50.8 8.932315811
-1.864002386 50.8 8.804856336
-2.612562095 50.8 8.612463022
-2.599220358 50.8 6.499542563
-2.697667978 50.8 5.359345807
-2.622948413 50.8 4.256775966
-2.978496522 50.8 4.016037657
-3.312078888 50.8 3.745681973
-2.172741249 50.8 2.068621634
-2.342211686 50.8 1.874578464
-0.8314696123 50.8 0.555570233
0 50.8 -0
0.9142097557 50.8 -0.405241314
1.891214651 50.8 -0.6506205843
2.91009376 50.8 -0.7289405397
3.949205673 50.8 -0.6354325733
5.98374274 50.8 -0.4413873816
6.999472913 50.8 0.085900768
9.951847267 50.8 0.9801714033
11.79726585 50.8 2.196478655
14.45664099 50.8 4.000691362
16.87210221 50.8 6.271536244
18.07978586 50.8 8.551101869
20.73534855 50.8 12.08492121
19.62203552 50.8 13.81939659
18.36401437 50.8 15.45195703
17.67766953 50.8 17.67766953
16.73962012 50.8 19.89434891
15.54682117 50.8 22.07478996
15.10615151 50.8 25.91918568
13.2542079 50.8 28.02366809
11.49781645 50.8 30.93218739
9.334946512 50.8 33.7321623
6.955515742 50.8 37.35800852
3.920685613 50.8 39.80738907
0.5031330697 50.8 40.99691278
0 50.4 39
3.346095181 50.4 38.85619188
6.83847555 50.4 39.4111057
9.939760725 50.4 37.71208237
12.12803472 50.4 33.89558635
14.15860504 50.4 30.91171143
15.27984396 50.4 26.97269672
16.40622251 50.4 23.91308978
17.12861867 50.4 20.87128224
18.15778248 50.4 18.60900146
18.17301232 50.4 15.67614823
19.45097276 50.4 14.05914858
21.44321525 50.4 12.8525686
21.56818718 50.4 10.52678972
19.59284878 50.4 7.557795767
18.24817987 50.4 5.291874098
15.69256449 50.4 3.121445152
11.92688364 50.4 1.322666488
9.996988187 50.4 0.2454122852
7.984944903 50.4 -0.4905658904
4.94588255 50.4 -0.7336523723
4.864699761 50.4 -1.155290541
2.848584542 50.4 -0.9410452212
1.838227703 50.4 -0.7879840801
0 50.4 -0
0 50.4 -0
-0.7883464276 50.4 0.6152315906
-0.7326542717 50.4 0.6806009978
-2.014676865 50.4 2.222853376
-1.816533124 50.4 2.387510714
-2.674988099 50.4 4.224267826
-3.223770977 50.4 6.213477343
-2.678784027 50.4 6.467156728
-1.812035696 50.4 5.719836242
-1.752809921 50.4 7.80561704
-1.076645668 50.4 7.927221083
-0.4416090689 50.4 8.989159106
0.3312650065 50.4 8.993901461
0.9792854016 50.4 7.939836277
1.864002386 50.4 8.804856336
2.612562095 50.4 8.612463022
2.599220358 50.4 6.499542563
3.596890637 50.4 7.14579441
4.196717461 50.4 6.810841545
4.765594436 50.4 6.425660252
5.961741998 50.4 6.742227551
6.518223747 50.4 6.205864903
8.588109514 50.4 6.87345437
9.146165735 50.4 6.111272563
11.38891122 50.4 6.268389037
12.79893658 50.4 5.673378396
14.18410988 50.4 4.879654382
13.58043754 50.4 3.401722519
10.8603156 50.4 1.747439577
8.97561411 50.4 0.6620810724
5.999548211 50.4 -0.07362922971
2.98555418 50.4 -0.294051421
-0.9831054874 50.4 0.183039888
-6.746432461 50.4 1.866989302
-9.373390119 50.4 3.484186802
-11.75186081 50.4 5.558216215
-15.55151141 50.4 9.063690907
-17.16928108 50.4 12.09197202
-18.36401437 50.4 15.45195703
-19.09188309 50.4 19.09188309
-18.67111474 50.4 22.1898507
-17.85005393 50.4 25.34512921
-16.11322828 50.4 27.6471314
-14.10931808 50.4 29.83164667
-12.54307249 50.4 33.74420443
-9.868372027 50.4 35.65971443
-7.13855563 50.4 38.34111401
-4.116719894 50.4 41.79775852
-0.5031330697 50.4 40.99691278
-9.797174393e-15 50 40
-3.431892494 50 39.85250449
-7.180399328 50 41.38166098
-10.44949204 50 39.64603531
-12.80181443 50 35.77867448
-14.99146416 50 32.73004739
-17.25143673 50 30.45304469
-19.23488157 50 28.03603629
-19.66619181 50 23.96332405
-20.25291123 50 20.75619393
-20.44463886 50 17.63566676
-21.07188715 50 15.23074429
-18.87002942 50 11.31026037
-17.97348931 50 8.772324771
-13.99489198 50 5.398425548
-11.52516623 50 3.342236273
-7.846282243 50 1.560722576
-2.98172091 50 0.3306666219
-0 50 0
4.990590565 50 0.3066036815
7.91341208 50 1.173843796
10.70233947 50 2.541639191
13.29339453 50 4.391544366
12.86759392 50 5.515888561
11.46497644 50 6.128157579
11.73514588 50 7.634549838
10.24850356 50 7.998010678
8.059196988 50 7.486610976
6.715589548 50 7.409511254
6.055110414 50 7.958369046
4.814978579 50 7.603682087
4.144848399 50 7.988756584
3.061467459 50 7.39103626
2.718053544 50 8.579754363
1.533708681 50 6.82991491
1.211226377 50 8.918123719
0.4416090689 50 8.989159106
-0.3312650065 50 8.993901461
-1.224106752 50 9.924795346
-1.864002386 50 8.804856336
-2.322277418 50 7.655522686
-2.599220358 50 6.499542563
-3.147279308 50 6.252570108
-3.147538096 50 5.108131159
-2.978496522 50 4.016037657
-3.312078888 50 3.745681973
-2.896988332 50 2.758162179
-2.342211686 50 1.874578464
-1.662939225 50 1.111140466
0.8760700942 50 -0.4821837721
0.9142097557 50 -0.405241314
1.891214651 50 -0.6506205843
2.91009376 50 -0.7289405397
3.949205673 50 -0.6354325733
4.986452283 50 -0.367822818
6.999472913 50 0.085900768
7.961477813 50 0.7841371226
11.79726585 50 2.196478655
14.45664099 50 4.000691362
16.87210221 50 6.271536244
18.98377516 50 8.978656962
20.73534855 50 12.08492121
19.62203552 50 13.81939659
19.89434891 50 16.73962012
17.67766953 50 17.67766953
16.09578857 50 19.12918164
14.39520479 50 20.43962033
14.60261313 50 25.05521283
12.8266528 50 27.11967879
11.49781645 50 30.93218739
9.601659269 50 34.69593837
6.772475854 50 36.37490303
3.822668473 50 38.81220434
0.4785899931 50 38.99706337
0 49.6 39
3.517689806 49.6 40.8488171
6.667513662 49.6 38.42582805
9.939760725 49.6 37.71208237
12.46492458 49.6 34.83713041
14.15860504 49.6 30.91171143
15.77274215 49.6 27.84278372
15.8404907 49.6 23.08850048
17.12861867 49.6 20.87128224
18.15778248 49.6 18.60900146
18.93022116 49.6 16.32932107
20.26142996 49.6 14.64494644
21.44321525 49.6 12.8525686
21.56818718 49.6 10.52678972
21.45883437 49.6 8.27758584
17.28774935 49.6 5.013354409
17.65413505 49.6 3.511625796
13.91469758 49.6 1.543110902
8.997289368 49.6 0.2208710567
7.984944903 49.6 -0.4905658904
5.93505906 49.6 -0.8803828467
3.891759809 49.6 -0.9242324331
3.798112722 49.6 -1.254726962
0.9191138517 49.6 -0.3939920401
0.8819212643 49.6 -0.4713967368
0 49.6 -0
-1.576692855 49.6 1.230463181
-1.465308543 49.6 1.361201996
-2.686235819 49.6 2.963804501
-2.422044166 49.6 3.183347618
-3.209985719 49.6 5.069121391
-2.763232266 49.6 5.325837722
-2.296100594 49.6 5.543277195
-1.812035696 49.6 5.719836242
-1.752809921 49.6 7.80561704
-1.211226377 49.6 8.918123719
-0.3925413946 49.6 7.99036365
0.2944577835 49.6 7.994579077
1.101696077 49.6 8.932315811
1.65689101 49.6 7.826538966
2.322277418 49.6 7.655522686
2.970537552 49.6 7.428048644
3.596890637 49.6 7.14579441
4.721307144 49.6 7.662196738
4.765594436 49.6 6.425660252
5.299326221 49.6 5.993091156
6.518223747 49.6 6.205864903
8.588109514 49.6 6.87345437
9.146165735 49.6 6.111272563
11.38891122 49.6 6.268389037
12.79893658 49.6 5.673378396
13.23850256 49.6 4.55434409
12.61040629 49.6 3.158742339
10.8603156 49.6 1.747439577
9.972904567 49.6 0.735645636
5.999548211 49.6 -0.07362922971
1.990369453 49.6 -0.1960342807
-1.966210975 49.6 0.3660797759
-6.746432461 49.6 1.866989302
-9.373390119 49.6 3.484186802
-13.5598394 49.6 6.413326401
-16.41548427 49.6 9.567229291
-17.98686589 49.6 12.66778021
-18.36401437 49.6 15.45195703
-19.09188309 49.6 19.09188309
-18.67111474 49.6 22.1898507
-17.85005393 49.6 25.34512921
-16.11322828 49.6 27.6471314
-14.53687318 49.6 30.73563597
-12.19465381 49.6 32.80686542
-9.868372027 49.6 35.65971443
-7.504635406 49.6 40.30732498
-4.018702754 49.6 40.80257379
-0.4908615314 49.6 39.99698807
-9.552245033e-15 49.2 39
-3.431892494 49.2 39.85250449
-7.180399328 49.2 41.38166098
-10.44949204 49.2 39.64603531
-12.46492458 49.2 34.83713041
-14.99146416 49.2 32.73004739
-17.25143673 49.2 30.45304469
-18.10341795 49.2 26.38685769
-20.30058509 49.2 24.73633451
-20.25291123 49.2 20.75619393
-20.44463886 49.2 17.63566676
-21.07188715 49.2 15.23074429
-19.72775803 49.2 11.82436312
-18.87216378 49.2 9.210941009
-15.86087758 49.2 6.118215621
-13.44602727 49.2 3.899275651
-8.827067524 49.2 1.755812898
-5.96344182 49.2 0.6613332438
-0 49.2 0
4.990590565 49.2 0.3066036815
6.92423557 49.2 1.027113321
9.729399522 49.2 2.310581083
11.39433817 49.2 3.764180885
11.94848007 49.2 5.121896521
12.3468977 49.2 6.599554316
10.89692117 49.2 7.089224849
8.671810704 49.2 6.767547496
6.593888445 49.2 6.12540898
6.715589548 49.2 7.409511254
5.449599373 49.2 7.162532141
4.279980959 49.2 6.758828522
3.684309688 49.2 7.101116963
3.061467459 49.2 7.39103626
2.416047595 49.2 7.626448323
1.752809921 49.2 7.80561704
1.345807085 49.2 9.909026354
0.4906767433 49.2 9.987954562
-0.3312650065 49.2 8.993901461
-1.101696077 49.2 8.932315811
-2.071113762 49.2 9.783173707
-2.612562095 49.2 8.612463022
-2.970537552 49.2 7.428048644
-3.147279308 49.2 6.252570108
-3.147538096 49.2 5.108131159
-2.978496522 49.2 4.016037657
-2.64966311 49.2 2.996545578
-2.896988332 49.2 2.758162179
-2.342211686 49.2 1.874578464
-1.662939225 49.2 1.111140466
-0.8760700942 49.2 0.4821837721
0.9142097557 49.2 -0.405241314
0 49.2 -0
1.940062506 49.2 -0.4859603598
2.961904254 49.2 -0.47657443
3.989161827 49.2 -0.2942582544
5.999548211 49.2 0.07362922971
8.95666254 49.2 0.882154263
9.831054874 49.2 1.83039888
14.45664099 49.2 4.000691362
16.87210221 49.2 6.271536244
18.07978586 49.2 8.551101869
19.00740283 49.2 11.07784444
19.62203552 49.2 13.81939659
18.36401437 49.2 15.45195703
17.67766953 49.2 17.67766953
16.09578857 49.2 19.12918164
14.97101298 49.2 21.25720514
13.59553636 49.2 23.32726712
12.8266528 49.2 27.11967879
11.49781645 49.2 30.93218739
9.334946512 49.2 33.7321623
6.772475854 49.2 36.37490303
4.018702754 49.2 40.80257379
0.4908615314 49.2 39.99698807
0 48.8 40
3.431892494 48.8 39.85250449
7.009437439 48.8 40.39638334
9.939760725 48.8 37.71208237
11.79114487 48.8 32.95404228
13.74217548 48.8 30.00254344
15.27984396 48.8 26.97269672
15.8404907 48.8 23.08850048
17.76301196 48.8 21.64429269
17.45940624 48.8 17.89327063
18.93022116 48.8 16.32932107
21.07188715 48.8 15.23074429
20.58548664 48.8 12.33846586
21.56818718 48.8 10.52678972
19.59284878 48.8 7.557795767
18.24817987 48.8 5.291874098
15.69256449 48.8 3.121445152
11.92688364 48.8 1.322666488
7.99759055 48.8 0.1963298282
5.988708677 48.8 -0.3679244178
3.95670604 48.8 -0.5869218978
2.918819857 48.8 -0.6931743248
1.899056361 48.8 -0.6273634808
0.9191138517 48.8 -0.3939920401
-0.8819212643 48.8 0.4713967368
0 48.8 -0
-1.576692855 48.8 1.230463181
-2.197962815 48.8 2.041802993
-2.014676865 48.8 2.222853376
-3.633066248 48.8 4.775021428
-3.209985719 48.8 5.069121391
-2.763232266 48.8 5.325837722
-2.296100594 48.8 5.543277195
-2.114041645 48.8 6.673142282
-1.971911161 48.8 8.78131917
-1.076645668 48.8 7.927221083
-0.5397444176 48.8 10.98675002
0.3680722294 48.8 9.993223846
1.101696077 48.8 8.932315811
2.071113762 48.8 9.783173707
2.322277418 48.8 7.655522686
2.970537552 48.8 7.428048644
4.046501967 48.8 8.039018711
4.721307144 48.8 7.662196738
4.765594436 48.8 6.425660252
5.961741998 48.8 6.742227551
6.518223747 48.8 6.205864903
7.807372286 48.8 6.248594881
9.146165735 48.8 6.111272563
10.51284113 48.8 5.786205265
10.97051707 48.8 4.862895768
12.29289523 48.8 4.229033798
11.64037504 48.8 2.915762159
10.8603156 48.8 1.747439577
7.978323653 48.8 0.5885165088
4.999623509 48.8 -0.06135769143
-0 48.8 0
-3.93242195 48.8 0.7321595518
-6.746432461 48.8 1.866989302
-11.24806814 48.8 4.181024163
-15.36781798 48.8 7.268436588
-16.41548427 48.8 9.567229291
-17.98686589 48.8 12.66778021
-18.36401437 48.8 15.45195703
-19.09188309 48.8 19.09188309
-18.67111474 48.8 22.1898507
-18.42586213 48.8 26.16271402
-16.11322828 48.8 27.6471314
-13.68176299 48.8 28.92765738
-12.19465381 48.8 32.80686542
-10.13508478 48.8 36.6234905
-6.955515742 48.8 37.35800852
-4.018702754 48.8 40.80257379
-0.5031330697 48.8 40.99691278
-1.004210375e-14 48.4 41
-3.517689806 48.4 40.8488171
-7.009437439 48.4 40.39638334
-10.19462638 48.4 38.67905884
-12.80181443 48.4 35.77867448
