# .PCD v0.7 - Point Cloud Data file format
VERSION 0.7
FIELDS x y z
SIZE 4 4 4
TYPE F F F
COUNT 1 1 1
WIDTH 1634
HEIGHT 1
VIEWPOINT 0 0 0 1 0 0 0
POINTS 1634
DATA ascii
-27.11967879 21.2 12.8266528
-25.91918568 21.2 15.10615151
-22.89237477 21.2 16.12262936
-22.95501797 21.2 19.31494629
-21.92031022 21.2 21.92031022
-22.534104 21.2 26.7808543
-21.30490308 21.2 30.25063809
-16.11322828 21.2 27.6471314
-14.10931808 21.2 29.83164667
-11.14939777 21.2 29.99484838
-8.001382724 21.2 28.91328197
-6.22335619 21.2 33.42558657
-3.528617052 21.2 35.82665016
-0.4908615314 21.2 39.99698807
-8.817456954e-15 20.8 36
-3.346095181 20.8 38.85619188
-6.154627995 20.8 35.46999513
-9.175163746 20.8 34.81115296
-11.79114487 20.8 32.95404228
-14.5750346 20.8 31.82087941
-17.25143673 20.8 30.45304469
-19.80061338 20.8 28.8606256
-22.20376495 20.8 27.05536587
-25.14154498 20.8 25.76630971
-24.98789193 20.8 21.55470382
-26.74508754 20.8 19.3313293
-28.30504413 20.8 16.96539056
-26.96023397 20.8 13.15848716
-26.12379837 20.8 10.07706102
-27.85248506 20.8 8.077070992
-26.48120257 20.8 5.267438694
-29.8172091 20.8 3.306666219
-34.98945865 20.8 0.8589429983
-38.9266064 20.8 -2.391508716
-38.57788389 20.8 -5.722488504
-34.05289833 20.8 -8.08703379
-31.33442996 20.8 -10.35149743
-27.57341555 20.8 -11.8197612
-28.22148046 20.8 -15.08469558
-27.66141528 20.8 -17.99572462
-28.38047139 20.8 -22.14833726
-27.84086232 20.8 -25.86283792
-24.84768133 20.8 -27.41519164
-24.8259527 20.8 -32.62931309
-22.46990004 20.8 -35.48384974
-19.80316457 20.8 -38.16850368
-16.45538759 20.8 -39.7268199
-13.28826177 20.8 -41.94546578
-9.640454567 20.8 -42.93089372
-5.517809049 20.8 -40.62700805
-1.962706973 20.8 -39.95181825
1.472288918 20.8 -39.97289538
5.263659034 20.8 -42.67661999
8.905789176 20.8 -42.06764694
11.90167177 20.8 -39.23455377
15.22400495 20.8 -38.0687493
18.43406452 20.8 -36.62219635
21.50817699 20.8 -34.90556292
20.84947566 20.8 -28.1122636
23.84696799 20.8 -26.9689102
24.62440082 20.8 -23.44437852
24.98359131 20.8 -19.99550362
25.77555798 20.8 -17.22267722
23.65389254 20.8 -13.01896185
26.51208292 20.8 -11.75199811
25.53139779 20.8 -8.783377888
23.28075008 20.8 -5.831524318
26.65713829 20.8 -4.28916987
32.91058507 20.8 -2.427630599
34.99736456 20.8 0.42950384
32.84109598 20.8 3.234565631
27.52695365 20.8 5.125116863
21.20307345 20.8 5.867680664
17.80944123 20.8 6.619954925
21.69574303 20.8 10.26132224
23.32726712 20.8 13.59553636
26.98029883 20.8 19.00167032
22.1898507 20.8 18.67111474
21.92031022 20.8 21.92031022
21.24644092 20.8 25.25051977
21.30490308 20.8 30.25063809
16.61676666 20.8 28.51110425
14.53687318 20.8 30.73563597
12.89149117 20.8 34.68154344
9.334946512 20.8 33.7321623
6.772475854 20.8 36.37490303
4.214737034 20.8 42.79294325
0.4785899931 20.8 38.99706337
0 20.4 40
3.431892494 20.4 39.85250449
6.325589884 20.4 36.45527277
9.684895065 20.4 36.7451059
12.12803472 20.4 33.89558635
13.32574592 20.4 29.09337546
14.78694577 20.4 26.10260973
20.932077 20.4 30.5098042
19.66619181 20.4 23.96332405
19.55453498 20.4 20.04046311
26.50230963 20.4 22.8610495
23.50325875 20.4 16.98813787
24.87412969 20.4 14.90897958
28.7575829 20.4 14.03571963
21.45883437 20.4 8.27758584
22.08990195 20.4 6.405952856
22.55806145 20.4 4.487077406
25.84158122 20.4 2.86577739
31.9903622 20.4 0.7853193127
37.92848829 20.4 -2.330187979
33.63200134 20.4 -4.988836131
26.26937871 20.4 -6.238568924
23.73820451 20.4 -7.84204351
23.89696014 20.4 -10.24379304
23.81187414 20.4 -12.72771189
25.14674117 20.4 -16.35974965
23.65039283 20.4 -18.45694772
24.17759097 20.4 -22.45983293
21.48988656 20.4 -23.71043601
20.58737541 20.4 -27.05845476
18.7249167 20.4 -29.56987478
17.96100973 20.4 -34.6179452
16.07270416 20.4 -38.80294037
12.08023797 20.4 -38.13224161
8.983150846 20.4 -40.00378733
5.786970466 20.4 -42.60881332
2.060842322 20.4 -41.94940916
-1.619517809 20.4 -43.97018492
-5.018837683 20.4 -40.69166092
-8.905789176 20.4 -42.06764694
-12.48224112 20.4 -41.14843444
-17.08059092 20.4 -42.7112797
-19.33328718 20.4 -38.40864495
-23.08194604 20.4 -37.4596285
-23.23227288 20.4 -31.32509373
-27.82146266 20.4 -31.46372857
-28.24563624 20.4 -26.89208124
-29.66801469 20.4 -23.74466055
-29.93290604 20.4 -20.00052839
-27.15817292 20.4 -14.94769693
-27.42629267 20.4 -12.15723942
-29.31382709 20.4 -10.08461906
-30.07096885 20.4 -7.532385577
-34.55554964 20.4 -5.560035017
-38.89432781 20.4 -2.86901798
-40.99691278 20.4 0.5031330697
-37.81701961 20.4 3.724651333
-30.47627011 20.4 5.674236527
-27.94950591 20.4 7.734669967
-29.99484838 20.4 11.14939777
-26.2156895 20.4 12.39909771
-25.05521283 20.4 14.60261313
-26.16271402 20.4 18.42586213
-23.72018523 20.4 19.95877783
-21.92031022 20.4 21.92031022
-22.534104 20.4 26.7808543
-19.57747851 20.4 27.79788365
-16.61676666 20.4 28.51110425
-15.39198336 20.4 32.54361455
-10.80097909 20.4 29.05750937
-9.601659269 20.4 34.69593837
-6.772475854 20.4 36.37490303
-3.626634192 20.4 36.82183489
-0.4540469166 20.4 36.99721397
-8.327598234e-15 20 34
-3.517689806 20 40.8488171
-6.496551773 20 37.44055041
-9.175163746 20 34.81115296
-11.45425502 20 32.01249822
-16.24075284 20 35.45755134
-18.23723311 20 32.19321867
-19.23488157 20 28.03603629
-23.47255151 20 28.60138677
-22.34803998 20 22.90338641
-26.50230963 20 22.8610495
-28.36600194 20 20.50292501
-26.58958691 20 15.93718507
-28.7575829 20 14.03571963
-28.92277676 20 11.15674613
-25.93162402 20 7.520031613
-26.48120257 20 5.267438694
-29.8172091 20 3.306666219
-34.98945865 20 0.8589429983
-40.92284263 20 -2.514150188
-39.5670604 20 -5.869218978
-34.05289833 20 -8.08703379
-30.38490178 20 -10.03781569
-28.4925294 20 -12.21375324
-24.6937954 20 -13.19910863
-29.33786469 20 -19.08637459
-26.01543211 20 -20.30264249
-25.64289951 20 -23.82103492
-28.2054761 20 -31.11994726
-24.22044166 20 -31.83347618
-22.46990004 20 -35.48384974
-19.80316457 20 -38.16850368
-15.69002073 20 -37.87906083
-12.38224392 20 -39.08554765
-9.202252087 20 -40.97948946
-5.517809049 20 -40.62700805
-1.962706973 20 -39.95181825
1.398674472 20 -37.97425061
5.018837683 20 -40.69166092
8.491566424 20 -40.1110122
11.61138709 20 -38.27761343
15.59532215 20 -38.99725538
18.43406452 20 -36.62219635
21.50817699 20 -34.90556292
23.23227288 20 -31.32509373
23.18455222 20 -26.21977381
27.52138915 20 -26.2025407
24.20285409 20 -19.37064413
24.94408837 20 -16.66710699
26.28210283 20 -14.46551316
24.6836634 20 -10.94151548
24.58579046 20 -8.458067596
25.22081258 20 -6.317484677
27.64443971 20 -4.448028013
32.91058507 20 -2.427630599
37.99713867 20 0.4663184549
35.82665016 20 3.528617052
27.52695365 20 5.125116863
23.13062558 20 6.401106179
21.55879727 20 8.013629646
23.50372162 20 11.11643243
24.19123997 20 14.09907474
25.34512921 20 17.85005393
26.01568703 20 21.89027246
22.627417 20 22.627417
20.60260937 20 24.4853525
17.27424574 20 24.52754439
18.12738181 20 31.10302282
16.24709355 20 34.35159314
12.89149117 20 34.68154344
10.13508478 20 36.6234905
6.040316303 20 32.44248109
4.312754175 20 43.78812797
0.515404608 20 41.99683748
0 19.6 43
3.689284431 19.6 42.84144232
7.009437439 19.6 40.39638334
9.684895065 19.6 36.7451059
12.46492458 19.6 34.83713041
14.5750346 19.6 31.82087941
16.75853854 19.6 29.5829577
18.66914976 19.6 27.21144699
22.20376495 19.6 27.05536587
20.95128748 19.6 21.47192476
25.74510078 19.6 22.20787666
24.31371595 19.6 17.57393572
24.01640108 19.6 14.39487684
20.66951271 19.6 10.08817349
22.39182717 19.6 8.637480877
24.01076299 19.6 6.962992235
23.53884673 19.6 4.682167728
27.82939516 19.6 3.086221804
35.98915747 19.6 0.8834842268
37.92848829 19.6 -2.330187979
35.61035436 19.6 -5.28229708
30.16113852 19.6 -7.162801357
27.53631724 19.6 -9.096770472
24.816074 19.6 -10.63778508
24.6937954 19.6 -13.19910863
24.30851646 19.6 -15.81442466
23.65039283 19.6 -18.45694772
22.71228242 19.6 -21.09863093
22.83300446 19.6 -25.19233826
21.79839749 19.6 -28.65012857
19.79491194 19.6 -31.25958191
17.96100973 19.6 -34.6179452
16.45538759 19.6 -39.7268199
13.28826177 19.6 -41.94546578
8.983150846 19.6 -40.00378733
5.786970466 19.6 -42.60881332
1.913639299 19.6 -38.95302279
-1.582710586 19.6 -42.97086254
-5.263659034 19.6 -42.67661999
-8.284455048 19.6 -39.13269483
-12.48224112 19.6 -41.14843444
-16.33795653 19.6 -40.85426754
-20.23250983 19.6 -40.19509355
-20.98358731 19.6 -34.05420772
-25.61507009 19.6 -34.53792385
-27.15904688 19.6 -30.71459218
-28.24563624 19.6 -26.89208124
-28.10654023 19.6 -22.49494157
-29.10143643 19.6 -19.44495816
-28.03424301 19.6 -15.42988071
-28.34050243 19.6 -12.56248073
-30.25943441 19.6 -10.40992935
-32.98106261 19.6 -8.261326117
-36.53015247 19.6 -5.877751303
-40.88890872 19.6 -3.016147108
-41.99683748 19.6 0.515404608
-37.81701961 19.6 3.724651333
-33.42558657 19.6 6.22335619
-28.91328197 19.6 8.001382724
-29.05750937 19.6 10.80097909
-27.11967879 19.6 12.8266528
-28.51110425 19.6 16.61676666
-26.98029883 19.6 19.00167032
-24.4853525 19.6 20.60260937
-22.627417 19.6 22.627417
-23.17793554 19.6 27.54602156
-21.30490308 19.6 30.25063809
-17.12030505 19.6 29.37507711
-16.67464864 19.6 35.25558243
-11.14939777 19.6 29.99484838
-10.13508478 19.6 36.6234905
-6.22335619 19.6 33.42558657
-3.724651333 19.6 37.81701961
-0.5031330697 19.6 40.99691278
-9.307315674e-15 19.2 38
-3.346095181 19.2 38.85619188
-6.496551773 19.2 37.44055041
-9.430029405 19.2 35.77812943
-12.80181443 19.2 35.77867448
-14.5750346 19.2 31.82087941
-17.74433492 19.2 31.32313168
-20.36634519 19.2 29.6852149
-21.56937166 19.2 26.28235541
-23.74479248 19.2 24.33484806
-24.23068309 19.2 20.90153097
-27.55554474 19.2 19.91712715
-30.87822996 19.2 18.50769879
-28.7575829 19.2 14.03571963
-27.05679117 19.2 10.43695606
-31.69420714 19.2 9.19114975
-30.40434369 19.2 6.047799982
-31.80502304 19.2 3.527110633
-38.98825393 19.2 0.9571079124
-42.91907885 19.2 -2.636791661
-40.55623691 19.2 -6.015949453
-37.94465814 19.2 -9.011266223
-34.1830145 19.2 -11.29254265
-29.41164325 19.2 -12.60774528
-29.10340172 19.2 -15.55609232
-26.82319058 19.2 -17.45039963
-26.80377854 19.2 -20.91787408
-26.37555378 19.2 -24.50163592
-26.86235819 19.2 -29.63804501
-24.8259527 19.2 -32.62931309
-21.93490242 19.2 -34.63899618
-19.34262586 19.2 -37.28086406
-16.83807102 19.2 -40.65069943
-13.59026772 19.2 -42.89877182
-9.421353327 19.2 -41.95519159
-5.921551174 19.2 -43.59971596
-2.011774647 19.2 -40.9506137
1.472288918 19.2 -39.97289538
5.263659034 19.2 -42.67661999
8.905789176 19.2 -42.06764694
12.48224112 19.2 -41.14843444
15.22400495 19.2 -38.0687493
16.6356192 19.2 -33.04929914
20.45899762 19.2 -33.20285253
23.82797218 19.2 -32.12830126
24.50938377 19.2 -27.7180466
26.79714207 19.2 -25.51300016
24.98359131 19.2 -19.99550362
25.77555798 19.2 -17.22267722
26.28210283 19.2 -14.46551316
29.25471218 19.2 -12.96772205
27.42261244 19.2 -9.433998473
25.22081258 19.2 -6.317484677
29.61904254 19.2 -4.7657443
33.90787553 19.2 -2.501195162
40.99691278 19.2 0.5031330697
39.80738907 19.2 3.920685613
28.51005914 19.2 5.308156751
25.05817771 19.2 6.934531694
20.62145826 19.2 7.665210965
23.50372162 19.2 11.11643243
22.46329426 19.2 13.09199798
21.25720514 19.2 14.97101298
24.4853525 19.2 20.60260937
23.33452378 19.2 23.33452378
21.24644092 19.2 25.25051977
18.42586213 19.2 26.16271402
17.62384343 19.2 30.23904996
15.39198336 19.2 32.54361455
12.89149117 19.2 34.68154344
9.868372027 19.2 35.65971443
8.05375507 19.2 43.25664145
4.508788455 19.2 45.77849743
0.601305376 19.2 48.99631039
0 18.8 45
3.860879055 18.8 44.83406755
7.009437439 18.8 40.39638334
10.7043577 18.8 40.61301178
12.46492458 18.8 34.83713041
15.40789372 18.8 33.63921537
20.20882588 18.8 35.67356664
22.62927243 18.8 32.98357211
20.30058509 18.8 24.73633451
23.74479248 18.8 24.33484806
26.50230963 18.8 22.8610495
26.74508754 18.8 19.3313293
28.30504413 18.8 16.96539056
23.36553611 18.8 11.4040222
23.32481997 18.8 8.997375913
24.9711935 18.8 7.241511924
24.51963201 18.8 4.87725805
29.8172091 18.8 3.306666219
37.98855511 18.8 0.9325666839
37.92848829 18.8 -2.330187979
35.61035436 18.8 -5.28229708
30.16113852 18.8 -7.162801357
27.53631724 18.8 -9.096770472
23.89696014 18.8 -10.24379304
25.57571667 18.8 -13.67050537
23.47029176 18.8 -15.26909968
26.01543211 18.8 -20.30264249
21.24697388 18.8 -19.73742894
24.17612237 18.8 -26.67424051
21.19288645 18.8 -27.85429166
19.79491194 18.8 -31.25958191
18.88208715 18.8 -36.39322444
16.07270416 18.8 -38.80294037
12.38224392 18.8 -39.08554765
9.640454567 18.8 -42.93089372
5.786970466 18.8 -42.60881332
2.060842322 18.8 -41.94940916
-1.472288918 18.8 -39.97289538
-4.896427008 18.8 -39.69918138
-8.491566424 18.8 -40.1110122
-12.19195644 18.8 -40.1914941
-15.96663934 18.8 -39.92576146
-20.23250983 18.8 -40.19509355
-21.50817699 18.8 -34.90556292
-23.82797218 18.8 -32.12830126
-27.82146266 18.8 -31.46372857
-31.14262457 18.8 -29.65024342
-29.66801469 18.8 -23.74466055
-29.93290604 18.8 -20.00052839
-29.7863832 18.8 -16.39424825
-31.99734145 18.8 -14.18344599
-34.04186371 18.8 -11.71117052
-33.95109386 18.8 -8.504306297
-38.50475531 18.8 -6.19546759
-42.88348964 18.8 -3.163276235
-43.99668688 18.8 0.5399476846
-39.80738907 18.8 3.920685613
-35.39179755 18.8 6.589435966
-28.91328197 18.8 8.001382724
-30.93218739 18.8 11.49781645
-28.02366809 18.8 13.2542079
-25.91918568 18.8 15.10615151
-25.34512921 18.8 17.85005393
-22.1898507 18.8 18.67111474
-24.74873734 18.8 24.74873734
-20.60260937 18.8 24.4853525
-19.00167032 18.8 26.98029883
-16.61676666 18.8 28.51110425
-14.53687318 18.8 30.73563597
-12.89149117 18.8 34.68154344
-9.601659269 18.8 34.69593837
-6.772475854 18.8 36.37490303
-3.822668473 18.8 38.81220434
-0.4908615314 18.8 39.99698807
-1.053196247e-14 18.4 43
-3.860879055 18.4 44.83406755
-7.009437439 18.4 40.39638334
-10.19462638 18.4 38.67905884
-12.12803472 18.4 33.89558635
-17.49004152 18.4 38.18505529
-19.2230295 18.4 33.93339265
-21.49780881 18.4 31.33439351
-22.20376495 18.4 27.05536587
-23.74479248 18.4 24.33484806
-24.98789193 18.4 21.55470382
-26.74508754 18.4 19.3313293
-26.58958691 18.4 15.93718507
-26.96023397 18.4 13.15848716
-29.85576956 18.4 11.51664117
-30.73377662 18.4 8.91263006
-31.38512897 18.4 6.242890305
-34.78674395 18.4 3.857777255
-38.98825393 18.4 0.9571079124
-42.91907885 18.4 -2.636791661
-43.52376644 18.4 -6.456140876
-38.91759809 18.4 -9.242324331
-34.1830145 18.4 -11.29254265
-28.4925294 18.4 -12.21375324
-29.98532299 18.4 -16.02748905
-31.85253881 18.4 -20.72234956
-29.16881782 18.4 -22.76356885
-29.30617087 18.4 -27.22403991
-24.84768133 18.4 -27.41519164
-24.22044166 18.4 -31.83347618
-22.46990004 18.4 -35.48384974
-19.34262586 18.4 -37.28086406
-16.07270416 18.4 -38.80294037
-13.28826177 18.4 -41.94546578
-9.421353327 18.4 -41.95519159
-5.786970466 18.4 -42.60881332
-2.011774647 18.4 -40.9506137
1.472288918 18.4 -39.97289538
4.896427008 18.4 -39.69918138
8.491566424 18.4 -40.1110122
11.90167177 18.4 -39.23455377
15.59532215 18.4 -38.99725538
18.43406452 18.4 -36.62219635
22.03276667 18.4 -35.75691811
22.04087427 18.4 -29.71867866
25.17179955 18.4 -28.46718299
25.3486479 18.4 -24.13391907
24.20285409 18.4 -19.37064413
27.43849721 18.4 -18.33381769
24.52996264 18.4 -13.50114562
26.51208292 18.4 -11.75199811
25.53139779 18.4 -8.783377888
26.19084384 18.4 -6.560464857
27.64443971 18.4 -4.448028013
33.90787553 18.4 -2.501195162
39.99698807 18.4 0.4908615314
38.81220434 18.4 3.822668473
31.4593756 18.4 5.857276415
26.02195378 18.4 7.201244452
23.4334753 18.4 8.710467006
20.79175374 18.4 9.833767149
24.19123997 18.4 14.09907474
23.70995958 18.4 16.69843755
25.25051977 18.4 21.24644092
21.92031022 18.4 21.92031022
21.24644092 18.4 25.25051977
20.1532867 18.4 28.61546846
18.12738181 18.4 31.10302282
16.67464864 18.4 35.25558243
12.89149117 18.4 34.68154344
10.40179754 18.4 37.58726657
7.687675294 18.4 41.29043047
4.018702754 18.4 40.80257379
0.5644907611 18.4 45.99653628
0 18 48
3.946676368 18 45.83038016
7.351361217 18 42.36693862
9.684895065 18 36.7451059
13.13870428 18 36.72021854
16.6571824 18 36.36671932
19.2230295 18 33.93339265
19.23488157 18 28.03603629
22.83815823 18 27.82837632
26.53829748 18 27.19777136
25.74510078 18 22.20787666
25.12417315 18 18.15973358
30.02050135 18 17.99359605
26.96023397 18 13.15848716
24.25781277 18 9.35727095
22.08990195 18 6.405952856
27.46198785 18 5.462529016
30.81111607 18 3.416888426
38.98825393 18 0.9571079124
41.92096074 18 -2.575470925
37.58870738 18 -5.575758029
30.16113852 18 -7.162801357
27.53631724 18 -9.096770472
26.6543017 18 -11.42576916
28.22148046 18 -15.08469558
23.47029176 18 -15.26909968
23.65039283 18 -18.45694772
25.64289951 18 -23.82103492
24.17612237 18 -26.67424051
24.22044166 18 -31.83347618
21.93490242 18 -34.63899618
17.50047102 18 -33.73030558
16.83807102 18 -40.65069943
12.08023797 18 -38.13224161
8.764049606 18 -39.0280852
5.786970466 18 -42.60881332
1.913639299 18 -38.95302279
-1.435481695 18 -38.973573
-5.018837683 18 -40.69166092
-8.6986778 18 -41.08932957
-12.19195644 18 -40.1914941
-15.59532215 18 -38.99725538
-19.33328718 18 -38.40864495
-21.50817699 18 -34.90556292
-26.2107694 18 -35.34113139
-27.82146266 18 -31.46372857
-30.41837748 18 -28.96070288
-29.66801469 18 -23.74466055
-31.59584527 18 -21.11166885
-33.29066358 18 -18.32298334
-31.99734145 18 -14.18344599
-33.09625639 18 -11.38586023
-35.89115637 18 -8.990266656
-40.47935814 18 -6.513183877
-43.88078009 18 -3.236840798
-47.99638569 18 0.5890338377
-41.79775852 18 4.116719894
-33.42558657 18 6.22335619
-28.91328197 18 8.001382724
-28.12017036 18 10.45256041
-28.92765738 18 13.68176299
-27.6471314 18 16.11322828
-26.16271402 18 18.42586213
-27.54602156 18 23.17793554
-22.627417 18 22.627417
-20.60260937 18 24.4853525
-20.72909489 18 29.43305327
-17.62384343 18 30.23904996
-15.81953846 18 33.44760385
-13.58832853 18 36.55622146
-8.801520997 18 31.80461017
-6.955515742 18 37.35800852
-3.920685613 18 39.80738907
-0.5767622994 18 46.99646099
-1.028703311e-14 17.6 42
-4.118270993 17.6 47.82300538
-7.351361217 17.6 42.36693862
-10.7043577 17.6 40.61301178
-13.13870428 17.6 36.72021854
-15.40789372 17.6 33.63921537
-18.23723311 17.6 32.19321867
-19.80061338 17.6 28.8606256
-22.83815823 17.6 27.82837632
-25.83992123 17.6 26.48204054
-28.77393617 17.6 24.82056803
-27.55554474 17.6 19.91712715
-30.87822996 17.6 18.50769879
-32.35228076 17.6 15.79018459
-29.85576956 17.6 11.51664117
-30.73377662 17.6 8.91263006
-32.36591425 17.6 6.437980627
-34.78674395 17.6 3.857777255
-39.98795275 17.6 0.9816491409
-45.91343319 17.6 -2.82075387
-45.50211946 17.6 -6.749601825
-41.83641794 17.6 -9.935498656
-37.03159904 17.6 -12.23358788
-31.24987096 17.6 -13.39572936
-29.98532299 17.6 -16.02748905
-31.01431411 17.6 -20.17702457
-30.74551068 17.6 -23.99403203
-27.84086232 17.6 -25.86283792
-26.19079924 17.6 -28.89709389
-24.8259527 17.6 -32.62931309
-21.93490242 17.6 -34.63899618
-19.80316457 17.6 -38.16850368
-16.07270416 17.6 -38.80294037
-12.68424987 17.6 -40.03885369
-9.202252087 17.6 -40.97948946
-5.38322834 17.6 -39.63610542
-1.864571624 17.6 -37.95422734
1.361867249 17.6 -36.97492823
4.651605658 17.6 -37.71422231
8.077343671 17.6 -38.15437746
12.7725258 17.6 -42.10537477
15.59532215 17.6 -38.99725538
18.43406452 17.6 -36.62219635
22.55735636 17.6 -36.6082733
23.23227288 17.6 -31.32509373
24.50938377 17.6 -27.7180466
25.3486479 17.6 -24.13391907
25.76432854 17.6 -20.62036311
25.77555798 17.6 -17.22267722
28.03424301 17.6 -15.42988071
27.42629267 17.6 -12.15723942
27.42261244 17.6 -9.433998473
27.16087509 17.6 -6.803445037
30.60634396 17.6 -4.924602443
34.90516598 17.6 -2.574759726
43.99668688 17.6 0.5399476846
42.79294325 17.6 4.214737034
34.40869206 17.6 6.406396078
28.91328197 17.6 8.001382724
26.24549233 17.6 9.755723047
27.11967879 17.6 12.8266528
25.05521283 17.6 14.60261313
26.98029883 17.6 19.00167032
25.25051977 17.6 21.24644092
23.33452378 17.6 23.33452378
20.60260937 17.6 24.4853525
17.85005393 17.6 25.34512921
18.6309202 17.6 31.96699568
14.53687318 17.6 30.73563597
12.89149117 17.6 34.68154344
10.93522306 17.6 39.5148187
7.687675294 17.6 41.29043047
4.116719894 17.6 41.79775852
0.5644907611 17.6 45.99653628
0 17.2 48
4.204068305 17.2 48.819318
7.864246883 17.2 45.32277155
10.44949204 17.2 39.64603531
12.80181443 17.2 35.77867448
17.07361196 17.2 37.27588731
19.71592769 17.2 34.80347964
22.06354062 17.2 32.15898281
22.83815823 17.2 27.82837632
24.44316873 17.2 25.05057888
26.50230963 17.2 22.8610495
28.36600194 17.2 20.50292501
27.44731552 17.2 16.45128781
26.96023397 17.2 13.15848716
25.19080557 17.2 9.717165986
26.89205454 17.2 7.798551303
28.44277313 17.2 5.657619338
35.78065092 17.2 3.967999463
41.98735039 17.2 1.030731598
42.91907885 17.2 -2.636791661
39.5670604 17.2 -5.869218978
32.10701842 17.2 -7.624917573
27.53631724 17.2 -9.096770472
27.57341555 17.2 -11.8197612
27.33955919 17.2 -14.61329884
24.30851646 17.2 -15.81442466
23.65039283 17.2 -18.45694772
25.64289951 17.2 -23.82103492
25.51924028 17.2 -28.15614276
24.22044166 17.2 -31.83347618
19.25991432 17.2 -30.41472835
17.96100973 17.2 -34.6179452
16.45538759 17.2 -39.7268199
12.68424987 17.2 -40.03885369
9.421353327 17.2 -41.95519159
5.652389757 17.2 -41.61791069
1.913639299 17.2 -38.95302279
-1.435481695 17.2 -38.973573
-4.651605658 17.2 -37.71422231
-8.491566424 17.2 -40.1110122
-12.19195644 17.2 -40.1914941
-15.22400495 17.2 -38.0687493
-18.88367585 17.2 -37.51542065
-22.55735636 17.2 -36.6082733
-24.42367148 17.2 -32.93150879
-27.82146266 17.2 -31.46372857
-28.24563624 17.2 -26.89208124
-29.66801469 17.2 -23.74466055
-29.93290604 17.2 -20.00052839
-30.6624533 17.2 -16.87643202
-31.99734145 17.2 -14.18344599
-36.87868569 17.2 -12.68710139
-35.89115637 17.2 -8.990266656
-41.46665956 17.2 -6.67204202
-44.87807055 17.2 -3.310405362
-47.99638569 17.2 0.5890338377
-42.79294325 17.2 4.214737034
-37.35800852 17.2 6.955515742
-31.80461017 17.2 8.801520997
-32.80686542 17.2 12.19465381
-29.83164667 17.2 14.10931808
-28.51110425 17.2 16.61676666
-27.79788365 17.2 19.57747851
-24.4853525 17.2 20.60260937
-26.87005769 17.2 26.87005769
-23.82176709 17.2 28.31118883
-22.45651947 17.2 31.88580771
-20.14153535 17.2 34.55891424
-16.67464864 17.2 35.25558243
-12.19465381 17.2 32.80686542
-10.40179754 17.2 37.58726657
-7.504635406 17.2 40.30732498
-3.920685613 17.2 39.80738907
-0.5399476846 17.2 43.99668688
-1.028703311e-14 16.8 42
-3.860879055 16.8 44.83406755
-7.864246883 16.8 45.32277155
-10.7043577 16.8 40.61301178
-12.46492458 16.8 34.83713041
-15.82432328 16.8 34.54838336
-18.7301313 16.8 33.06330566
-23.19500424 16.8 33.80816141
-22.83815823 16.8 27.82837632
-26.53829748 16.8 27.19777136
-26.50230963 16.8 22.8610495
-28.36600194 16.8 20.50292501
-30.87822996 16.8 18.50769879
-30.55493183 16.8 14.91295211
-31.72175516 16.8 12.23643124
-30.73377662 16.8 8.91263006
-32.36591425 16.8 6.437980627
-35.78065092 16.8 3.967999463
-41.98735039 16.8 1.030731598
-47.90966942 16.8 -2.943395343
-48.46964899 16.8 -7.189793248
-42.8093579 16.8 -10.16655676
-37.98112722 16.8 -12.54726962
-33.08809866 16.8 -14.18371344
-31.74916552 16.8 -16.97028253
-30.1760894 16.8 -19.63169958
-28.38047139 16.8 -22.14833726
-29.30617087 16.8 -27.22403991
-26.19079924 16.8 -28.89709389
-25.43146374 16.8 -33.42514999
-23.00489766 16.8 -36.32870331
-18.88208715 16.8 -36.39322444
-17.22075446 16.8 -41.57457896
-12.68424987 16.8 -40.03885369
-8.544948366 16.8 -38.05238307
-5.248647632 16.8 -38.64520278
-1.913639299 16.8 -38.95302279
1.398674472 16.8 -37.97425061
4.774016333 16.8 -38.70670185
8.491566424 16.8 -40.1110122
11.90167177 16.8 -39.23455377
16.33795653 16.8 -40.85426754
19.33328718 16.8 -38.40864495
20.98358731 16.8 -34.05420772
23.23227288 16.8 -31.32509373
27.15904688 16.8 -30.71459218
28.24563624 16.8 -26.89208124
26.54506577 16.8 -21.2452226
29.93290604 16.8 -20.00052839
26.28210283 16.8 -14.46551316
29.25471218 16.8 -12.96772205
29.31382709 16.8 -10.08461906
28.13090634 16.8 -7.046425217
32.5809468 16.8 -5.24231873
38.89432781 16.8 -2.86901798
44.99661158 16.8 0.5522192229
44.7833127 16.8 4.410771315
35.39179755 16.8 6.589435966
29.87705804 16.8 8.268095482
26.24549233 16.8 9.755723047
24.40771091 16.8 11.54398752
25.91918568 16.8 15.10615151
26.98029883 16.8 19.00167032
23.72018523 16.8 19.95877783
24.74873734 16.8 24.74873734
23.82176709 16.8 28.31118883
22.45651947 16.8 31.88580771
18.6309202 16.8 31.96699568
17.52975883 16.8 37.06356102
14.98200325 16.8 40.30557751
10.6685103 16.8 38.55104263
7.687675294 16.8 41.29043047
4.116719894 16.8 41.79775852
0.5644907611 16.8 45.99653628
0 16.4 49
4.118270993 16.4 47.82300538
7.864246883 16.4 45.32277155
10.44949204 16.4 39.64603531
14.14937384 16.4 39.54485074
17.07361196 16.4 37.27588731
19.2230295 16.4 33.93339265
20.932077 16.4 30.5098042
26.01012465 16.4 31.69342859
23.04641623 16.4 23.61911723
26.50230963 16.4 22.8610495
27.55554474 16.4 19.91712715
30.87822996 16.4 18.50769879
28.7575829 16.4 14.03571963
29.85576956 16.4 11.51664117
30.73377662 16.4 8.91263006
31.38512897 16.4 6.242890305
36.77455789 16.4 4.07822167
41.98735039 16.4 1.030731598
45.91343319 16.4 -2.82075387
41.54541342 16.4 -6.162679927
33.07995837 16.4 -7.855975682
27.53631724 16.4 -9.096770472
28.4925294 16.4 -12.21375324
27.33955919 16.4 -14.61329884
27.66141528 16.4 -17.99572462
23.65039283 16.4 -18.45694772
24.91024524 16.4 -23.14043393
23.50456342 16.4 -25.93328939
24.8259527 16.4 -32.62931309
20.86490718 16.4 -32.94928904
17.96100973 16.4 -34.6179452
15.30733729 16.4 -36.9551813
12.98625582 16.4 -40.99215974
9.202252087 16.4 -40.97948946
5.517809049 16.4 -40.62700805
2.060842322 16.4 -41.94940916
-1.325060026 16.4 -35.97560585
-4.284373632 16.4 -34.73678371
-8.077343671 16.4 -38.15437746
-12.19195644 16.4 -40.1914941
-15.22400495 16.4 -38.0687493
-18.43406452 16.4 -36.62219635
-22.03276667 16.4 -35.75691811
-25.01937079 16.4 -33.73471632
-25.83421533 16.4 -29.21631939
-29.6941304 16.4 -28.27116233
-30.44875191 16.4 -24.36952004
-32.42731488 16.4 -21.66723909
-34.16673367 16.4 -18.80516711
-33.82576096 16.4 -14.99392862
-35.93307836 16.4 -12.3617911
-36.86118762 16.4 -9.233246836
-43.4412624 16.4 -6.989758307
-47.86994192 16.4 -3.531099053
-47.99638569 16.4 0.5890338377
-45.77849743 16.4 4.508788455
-36.37490303 16.4 6.772475854
-33.7321623 16.4 9.334946512
-32.80686542 16.4 12.19465381
-31.63962526 16.4 14.96442827
-28.51110425 16.4 16.61676666
-29.43305327 16.4 20.72909489
-29.07635609 16.4 24.46559863
-24.04163056 16.4 24.04163056
-23.17793554 16.4 27.54602156
-21.88071127 16.4 31.0682229
-20.64507373 16.4 35.4228871
-17.52975883 16.4 37.06356102
-13.23990985 16.4 35.61888245
-10.40179754 16.4 37.58726657
-7.13855563 16.4 38.34111401
-4.116719894 16.4 41.79775852
-0.5276761463 16.4 42.99676218
-1.077689183e-14 16 44
-3.775081743 16 43.83775494
-7.351361217 16 42.36693862
-10.19462638 16 38.67905884
-13.81248399 16 38.60330667
-17.49004152 16 38.18505529
-19.71592769 16 34.80347964
-23.19500424 16 33.80816141
-22.83815823 16 27.82837632
-26.53829748 16 27.19777136
-28.77393617 16 24.82056803
-29.98691634 16 21.67452073
-31.73595857 16 19.02180154
-32.35228076 16 15.79018459
-28.92277676 16 11.15674613
-30.73377662 16 8.91263006
-34.32748481 16 6.828161271
-35.78065092 16 3.967999463
-42.9870492 16 1.055272826
-49.90590565 16 -3.066036815
-50.44800201 16 -7.483254197
-43.78229785 16 -10.39761487
-38.9306554 16 -12.86095136
-34.92632636 16 -14.97169752
-33.51300805 16 -17.913076
-31.01431411 16 -20.17702457
-30.74551068 16 -23.99403203
-29.30617087 16 -27.22403991
-26.19079924 16 -28.89709389
-24.8259527 16 -32.62931309
-23.00489766 16 -36.32870331
-19.80316457 16 -38.16850368
-16.45538759 16 -39.7268199
-12.68424987 16 -40.03885369
-9.202252087 16 -40.97948946
-5.517809049 16 -40.62700805
-1.864571624 16 -37.95422734
1.435481695 16 -38.973573
4.774016333 16 -38.70670185
8.6986778 16 -41.08932957
12.19195644 16 -40.1914941
15.59532215 16 -38.99725538
18.88367585 16 -37.51542065
22.03276667 16 -35.75691811
24.42367148 16 -32.93150879
23.84696799 16 -26.9689102
26.07289499 16 -24.82345961
27.325803 16 -21.87008208
27.43849721 16 -18.33381769
28.03424301 16 -15.42988071
27.42629267 16 -12.15723942
26.47700511 16 -9.108688181
28.13090634 16 -7.046425217
32.5809468 16 -5.24231873
39.89161827 16 -2.942582544
45.99653628 16 0.5644907611
46.77368215 16 4.606805595
38.34111401 16 7.13855563
30.84083411 16 8.534808239
27.18283135 16 10.10414173
26.2156895 16 12.39909771
25.91918568 16 15.10615151
26.98029883 16 19.00167032
27.54602156 16 23.17793554
25.45584412 16 25.45584412
21.89027246 16 26.01568703
20.1532867 16 28.61546846
20.14153535 16 34.55891424
16.24709355 16 34.35159314
13.58832853 16 36.55622146
11.20193581 16 40.47859476
7.504635406 16 40.30732498
4.116719894 16 41.79775852
0.601305376 16 48.99631039
0 15.6 44
4.289865617 15.6 49.81563061
7.351361217 15.6 42.36693862
11.21408902 15.6 42.54696473
14.82315355 15.6 41.42793887
17.49004152 15.6 38.18505529
18.7301313 15.6 33.06330566
20.932077 15.6 30.5098042
23.47255151 15.6 28.60138677
26.53829748 15.6 27.19777136
26.50230963 15.6 22.8610495
28.36600194 15.6 20.50292501
28.30504413 15.6 16.96539056
29.65625737 15.6 14.47433587
28.92277676 15.6 11.15674613
30.73377662 15.6 8.91263006
30.40434369 15.6 6.047799982
36.77455789 15.6 4.07822167
43.98674802 15.6 1.079814055
45.91343319 15.6 -2.82075387
40.55623691 15.6 -6.015949453
35.99877823 15.6 -8.549150006
27.53631724 15.6 -9.096770472
26.6543017 15.6 -11.42576916
28.22148046 15.6 -15.08469558
26.82319058 15.6 -17.45039963
25.22708568 15.6 -19.6874109
26.37555378 15.6 -24.50163592
24.17612237 15.6 -26.67424051
23.00941957 15.6 -30.24180238
20.86490718 15.6 -32.94928904
17.96100973 15.6 -34.6179452
16.07270416 15.6 -38.80294037
12.68424987 15.6 -40.03885369
9.202252087 15.6 -40.97948946
5.38322834 15.6 -39.63610542
1.962706973 15.6 -39.95181825
-1.435481695 15.6 -38.973573
-4.896427008 15.6 -39.69918138
-8.077343671 15.6 -38.15437746
-11.90167177 15.6 -39.23455377
-15.96663934 15.6 -39.92576146
-18.88367585 15.6 -37.51542065
-20.98358731 15.6 -34.05420772
-25.01937079 15.6 -33.73471632
-27.15904688 15.6 -30.71459218
-28.24563624 15.6 -26.89208124
-31.22948914 15.6 -24.99437953
-33.25878449 15.6 -22.22280932
-35.04280377 15.6 -19.28735088
-34.73997072 15.6 -15.39916993
-35.93307836 15.6 -12.3617911
-38.80125013 15.6 -9.719207196
-43.4412624 15.6 -6.989758307
-47.86994192 15.6 -3.531099053
-49.99623509 15.6 0.6135769143
-44.7833127 15.6 4.410771315
-36.37490303 15.6 6.772475854
-31.80461017 15.6 8.801520997
-32.80686542 15.6 12.19465381
-31.63962526 15.6 14.96442827
-31.10302282 15.6 18.12738181
-29.43305327 15.6 20.72909489
-26.7808543 15.6 22.534104
-26.87005769 15.6 26.87005769
-25.75326172 15.6 30.60669062
-21.88071127 15.6 31.0682229
-20.64507373 15.6 35.4228871
-17.10220374 15.6 36.15957172
-13.58832853 15.6 36.55622146
-10.6685103 15.6 38.55104263
-7.321595518 15.6 39.3242195
-4.018702754 15.6 40.80257379
-0.5399476846 15.6 43.99668688
-1.077689183e-14 15.2 44
-3.946676368 15.2 45.83038016
-7.180399328 15.2 41.38166098
-10.7043577 15.2 40.61301178
-13.81248399 15.2 38.60330667
-17.90647108 15.2 39.09422327
-19.71592769 15.2 34.80347964
-24.89219967 15.2 36.28192932
-26.01012465 15.2 31.69342859
-27.23667373 15.2 27.91350219
-31.80277155 15.2 27.4332594
-29.17645914 15.2 21.08872287
-33.45141579 15.2 20.05000702
-34.1496297 15.2 16.66741706
-31.72175516 15.2 12.23643124
-33.61506818 15.2 9.748189128
-34.32748481 15.2 6.828161271
-38.76237183 15.2 4.298666084
-44.98644684 15.2 1.104355284
-49.90590565 15.2 -3.066036815
-47.48047248 15.2 -7.043062774
-44.7552378 15.2 -10.62867298
-39.88018358 15.2 -13.1746331
-36.76455407 15.2 -15.7596816
-33.51300805 15.2 -17.913076
-31.01431411 15.2 -20.17702457
-29.95716425 15.2 -23.37880044
-28.5735166 15.2 -26.54343891
-26.86235819 15.2 -29.63804501
-25.43146374 15.2 -33.42514999
-23.00489766 15.2 -36.32870331
-20.72424199 15.2 -39.94378292
-16.45538759 15.2 -39.7268199
-12.98625582 15.2 -40.99215974
-8.764049606 15.2 -39.0280852
-5.248647632 15.2 -38.64520278
-1.81550395 15.2 -36.95543188
1.472288918 15.2 -39.97289538
4.896427008 15.2 -39.69918138
8.905789176 15.2 -42.06764694
12.48224112 15.2 -41.14843444
15.96663934 15.2 -39.92576146
18.43406452 15.2 -36.62219635
21.50817699 15.2 -34.90556292
22.63657357 15.2 -30.5218862
25.17179955 15.2 -28.46718299
26.07289499 15.2 -24.82345961
26.54506577 15.2 -21.2452226
29.93290604 15.2 -20.00052839
30.6624533 15.2 -16.87643202
29.25471218 15.2 -12.96772205
29.31382709 15.2 -10.08461906
30.07096885 15.2 -7.532385577
33.56824822 15.2 -5.401176873
39.89161827 15.2 -2.942582544
43.99668688 15.2 0.5399476846
45.77849743 15.2 4.508788455
40.30732498 15.2 7.504635406
31.80461017 15.2 8.801520997
29.05750937 15.2 10.80097909
29.83164667 15.2 14.10931808
28.51110425 15.2 16.61676666
28.61546846 15.2 20.1532867
26.7808543 15.2 22.534104
26.1629509 15.2 26.1629509
21.24644092 15.2 25.25051977
21.30490308 15.2 30.25063809
18.12738181 15.2 31.10302282
16.67464864 15.2 35.25558243
13.58832853 15.2 36.55622146
10.93522306 15.2 39.5148187
8.05375507 15.2 43.25664145
4.704822736 15.2 47.76886688
0.5890338377 15.2 47.99638569
0 14.8 46
3.775081743 14.8 43.83775494
7.180399328 14.8 41.38166098
10.95922336 14.8 41.57998825
12.80181443 14.8 35.77867448
17.90647108 14.8 39.09422327
19.71592769 14.8 34.80347964
21.49780881 14.8 31.33439351
24.1069448 14.8 29.37439723
27.93504998 14.8 28.62923301
25.74510078 14.8 22.20787666
27.55554474 14.8 19.91712715
30.87822996 14.8 18.50769879
29.65625737 14.8 14.47433587
29.85576956 14.8 11.51664117
31.69420714 14.8 9.19114975
33.34669953 14.8 6.633070949
39.7562788 14.8 4.408888292
44.98644684 14.8 1.104355284
45.91343319 14.8 -2.82075387
41.54541342 14.8 -6.162679927
35.02583828 14.8 -8.318091898
31.33442996 14.8 -10.35149743
27.57341555 14.8 -11.8197612
27.33955919 14.8 -14.61329884
25.98496587 14.8 -16.90507464
23.65039283 14.8 -18.45694772
25.64289951 14.8 -23.82103492
22.83300446 14.8 -25.19233826
23.00941957 14.8 -30.24180238
21.93490242 14.8 -34.63899618
18.88208715 14.8 -36.39322444
16.07270416 14.8 -38.80294037
12.98625582 14.8 -40.99215974
9.421353327 14.8 -41.95519159
5.921551174 14.8 -43.59971596
2.060842322 14.8 -41.94940916
-1.398674472 14.8 -37.97425061
-4.896427008 14.8 -39.69918138
-8.284455048 14.8 -39.13269483
-11.90167177 14.8 -39.23455377
-15.59532215 14.8 -38.99725538
-19.33328718 14.8 -38.40864495
-23.60653572 14.8 -38.31098369
-25.61507009 14.8 -34.53792385
-28.48387844 14.8 -32.21286496
-31.14262457 14.8 -29.65024342
-31.22948914 14.8 -24.99437953
-32.42731488 14.8 -21.66723909
-35.04280377 14.8 -19.28735088
-33.82576096 14.8 -14.99392862
-36.87868569 14.8 -12.68710139
-39.77128138 14.8 -9.962187376
-44.42856382 14.8 -7.14861645
-47.86994192 14.8 -3.531099053
-50.99615979 14.8 0.6258484526
-44.7833127 14.8 4.410771315
-39.3242195 14.8 7.321595518
-34.69593837 14.8 9.601659269
-32.80686542 14.8 12.19465381
-30.73563597 14.8 14.53687318
-32.83096853 14.8 19.13445858
-31.88580771 14.8 22.45651947
-27.54602156 14.8 23.17793554
-28.28427125 14.8 28.28427125
-24.46559863 14.8 29.07635609
-22.45651947 14.8 31.88580771
-19.13445858 14.8 32.83096853
-16.24709355 14.8 34.35159314
-14.28516589 14.8 38.43089949
-10.6685103 14.8 38.55104263
-7.321595518 14.8 39.3242195
-4.312754175 14.8 43.78812797
-0.5522192229 14.8 44.99661158
-1.102182119e-14 14.4 45
-3.775081743 14.4 43.83775494
-7.180399328 14.4 41.38166098
-10.19462638 14.4 38.67905884
-13.81248399 14.4 38.60330667
-16.6571824 14.4 36.36671932
-19.71592769 14.4 34.80347964
-24.32646786 14.4 35.45734002
-24.1069448 14.4 29.37439723
-27.93504998 14.4 28.62923301
-28.01672732 14.4 24.16739519
-29.17645914 14.4 21.08872287
-34.3091444 14.4 20.56410977
-31.4536063 14.4 15.35156835
-32.65474796 14.4 12.59632628
-33.61506818 14.4 9.748189128
-33.34669953 14.4 6.633070949
-37.76846486 14.4 4.188443877
-43.98674802 14.4 1.079814055
-48.90778753 14.4 -3.004716079
-50.44800201 14.4 -7.483254197
-43.78229785 14.4 -10.39761487
-40.82971177 14.4 -13.48831484
-35.84544022 14.4 -15.36568956
-33.51300805 14.4 -17.913076
-31.85253881 14.4 -20.72234956
-30.74551068 14.4 -23.99403203
-29.30617087 14.4 -27.22403991
-27.53391715 14.4 -30.37899614
-24.8259527 14.4 -32.62931309
-24.07489289 14.4 -38.01841044
-20.72424199 14.4 -39.94378292
-16.83807102 14.4 -40.65069943
-13.28826177 14.4 -41.94546578
-9.421353327 14.4 -41.95519159
-5.38322834 14.4 -39.63610542
-2.011774647 14.4 -40.9506137
1.472288918 14.4 -39.97289538
4.896427008 14.4 -39.69918138
8.491566424 14.4 -40.1110122
13.06281048 14.4 -43.06231511
16.33795653 14.4 -40.85426754
17.98445319 14.4 -35.72897205
22.03276667 14.4 -35.75691811
23.23227288 14.4 -31.32509373
23.84696799 14.4 -26.9689102
26.79714207 14.4 -25.51300016
24.98359131 14.4 -19.99550362
28.26996682 14.4 -18.88938792
27.15817292 14.4 -14.94769693
29.25471218 14.4 -12.96772205
28.36821976 14.4 -9.759308765
29.1009376 14.4 -7.289405397
31.59364538 14.4 -5.083460587
39.89161827 14.4 -2.942582544
45.99653628 14.4 0.5644907611
46.77368215 14.4 4.606805595
40.30732498 14.4 7.504635406
33.7321623 14.4 9.334946512
32.80686542 14.4 12.19465381
30.73563597 14.4 14.53687318
28.51110425 14.4 16.61676666
29.43305327 14.4 20.72909489
30.60669062 14.4 25.75326172
26.1629509 14.4 26.1629509
24.46559863 14.4 29.07635609
20.72909489 14.4 29.43305327
20.14153535 14.4 34.55891424
17.10220374 14.4 36.15957172
14.63358457 14.4 39.3682385
10.93522306 14.4 39.5148187
8.236794958 14.4 44.23974693
4.214737034 14.4 42.79294325
0.5522192229 14.4 44.99661158
0 14 45
3.689284431 14 42.84144232
7.693284994 14 44.33749391
10.95922336 14 41.57998825
13.47559414 14 37.66176261
17.07361196 14 37.27588731
19.71592769 14 34.80347964
20.932077 14 30.5098042
23.47255151 14 28.60138677
25.83992123 14 26.48204054
26.50230963 14 22.8610495
27.55554474 14 19.91712715
30.87822996 14 18.50769879
30.55493183 14 14.91295211
29.85576956 14 11.51664117
32.65463766 14 9.469669439
32.36591425 14 6.437980627
38.76237183 14 4.298666084
45.98614566 14 1.128896512
46.91155131 14 -2.882074606
42.53458993 14 -6.309410402
35.02583828 14 -8.318091898
30.38490178 14 -10.03781569
28.4925294 14 -12.21375324
27.33955919 14 -14.61329884
26.82319058 14 -17.45039963
25.22708568 14 -19.6874109
24.91024524 14 -23.14043393
24.17612237 14 -26.67424051
23.00941957 14 -30.24180238
21.93490242 14 -34.63899618
19.34262586 14 -37.28086406
15.30733729 14 -36.9551813
12.98625582 14 -40.99215974
9.640454567 14 -42.93089372
6.056131883 14 -44.59061859
2.060842322 14 -41.94940916
-1.509096141 14 -40.97221777
-4.774016333 14 -38.70670185
-8.491566424 14 -40.1110122
-12.48224112 14 -41.14843444
-16.33795653 14 -40.85426754
-21.13173249 14 -41.98154216
-23.08194604 14 -37.4596285
-27.40216801 14 -36.94754645
-28.48387844 14 -32.21286496
-31.14262457 14 -29.65024342
-34.35243806 14 -27.49381748
-34.0902541 14 -22.77837955
-35.91887386 14 -19.76953466
-35.65418047 14 -15.80441125
-37.82429302 14 -13.01241169
-39.77128138 14 -9.962187376
-44.42856382 14 -7.14861645
-48.86723238 14 -3.604663616
-50.99615979 14 0.6258484526
-46.77368215 14 4.606805595
-39.3242195 14 7.321595518
-34.69593837 14 9.601659269
-32.80686542 14 12.19465381
-31.63962526 14 14.96442827
-30.23904996 14 17.62384343
-30.25063809 14 21.30490308
-26.7808543 14 22.534104
-27.57716447 14 27.57716447
-25.75326172 14 30.60669062
-23.03232766 14 32.70339253
-20.14153535 14 34.55891424
-17.95731392 14 37.96755031
-13.93674721 14 37.49356048
-10.93522306 14 39.5148187
-7.321595518 14 39.3242195
-4.214737034 14 42.79294325
-0.515404608 14 41.99683748
-1.028703311e-14 13.6 42
-3.431892494 13.6 39.85250449
-7.009437439 13.6 40.39638334
-10.44949204 13.6 39.64603531
-13.47559414 13.6 37.66176261
-17.49004152 13.6 38.18505529
-18.7301313 13.6 33.06330566
-22.62927243 13.6 32.98357211
-24.74133808 13.6 30.14740768
-29.33180248 13.6 30.06069466
-29.53114501 13.6 25.47374088
-30.79737353 13.6 22.26031858
-33.45141579 13.6 20.05000702
-33.25095523 13.6 16.22880083
-31.72175516 13.6 12.23643124
-34.5754987 13.6 10.02670882
-34.32748481 13.6 6.828161271
-39.7562788 13.6 4.408888292
-44.98644684 13.6 1.104355284
-49.90590565 13.6 -3.066036815
-50.44800201 13.6 -7.483254197
-45.72817775 13.6 -10.85973109
-39.88018358 13.6 -13.1746331
-34.00721251 13.6 -14.57770548
-33.51300805 13.6 -17.913076
-31.01431411 13.6 -20.17702457
-31.53385711 13.6 -24.60926362
-29.30617087 13.6 -27.22403991
-28.87703506 13.6 -31.86089839
-25.43146374 13.6 -33.42514999
-24.60989051 13.6 -38.863264
-21.64531942 13.6 -41.71906216
-17.22075446 13.6 -41.57457896
-13.59026772 13.6 -42.89877182
-9.421353327 13.6 -41.95519159
-5.786970466 13.6 -42.60881332
-2.060842322 13.6 -41.94940916
1.582710586 13.6 -42.97086254
5.263659034 13.6 -42.67661999
9.112900552 13.6 -43.04596431
13.06281048 13.6 -43.06231511
15.96663934 13.6 -39.92576146
18.88367585 13.6 -37.51542065
22.03276667 13.6 -35.75691811
22.04087427 13.6 -29.71867866
23.84696799 13.6 -26.9689102
26.07289499 13.6 -24.82345961
28.10654023 13.6 -22.49494157
26.60702759 13.6 -17.77824746
28.03424301 13.6 -15.42988071
30.16892194 13.6 -13.37296336
30.25943441 13.6 -10.40992935
30.07096885 13.6 -7.532385577
34.55554964 13.6 -5.560035017
41.88619918 13.6 -3.089711671
45.99653628 13.6 0.5644907611
46.77368215 13.6 4.606805595
39.3242195 13.6 7.321595518
33.7321623 13.6 9.334946512
32.80686542 13.6 12.19465381
28.92765738 13.6 13.68176299
30.23904996 13.6 17.62384343
28.61546846 13.6 20.1532867
26.01568703 13.6 21.89027246
28.99137803 13.6 28.99137803
25.10943017 13.6 29.84152336
21.88071127 13.6 31.0682229
19.13445858 13.6 32.83096853
17.52975883 13.6 37.06356102
13.23990985 13.6 35.61888245
10.6685103 13.6 38.55104263
7.504635406 13.6 40.30732498
4.214737034 13.6 42.79294325
0.5276761463 13.6 42.99676218
0 13.2 41
3.689284431 13.2 42.84144232
7.180399328 13.2 41.38166098
10.95922336 13.2 41.57998825
12.80181443 13.2 35.77867448
17.90647108 13.2 39.09422327
19.71592769 13.2 34.80347964
22.06354062 13.2 32.15898281
24.74133808 13.2 30.14740768
23.04641623 13.2 23.61911723
27.25951847 13.2 23.51422235
28.36600194 13.2 20.50292501
30.87822996 13.2 18.50769879
31.4536063 13.2 15.35156835
31.72175516 13.2 12.23643124
31.69420714 13.2 9.19114975
35.30827009 13.2 7.023251593
39.7562788 13.2 4.408888292
45.98614566 13.2 1.128896512
47.90966942 13.2 -2.943395343
43.52376644 13.2 -6.456140876
35.99877823 13.2 -8.549150006
29.4353736 13.2 -9.724133952
28.4925294 13.2 -12.21375324
26.45763793 13.2 -14.1419021
25.14674117 13.2 -16.35974965
24.43873926 13.2 -19.07217931
24.17759097 13.2 -22.45983293
22.16144551 13.2 -24.45138714
23.61493061 13.2 -31.03763928
20.32990956 13.2 -32.10443548
17.96100973 13.2 -34.6179452
15.69002073 13.2 -37.87906083
13.28826177 13.2 -41.94546578
10.07865705 13.2 -44.88229798
6.190712591 13.2 -45.58152123
2.15897767 13.2 -43.94700007
-1.545903364 13.2 -41.97154015
-5.263659034 13.2 -42.67661999
-8.905789176 13.2 -42.06764694
-12.19195644 13.2 -40.1914941
-16.70927373 13.2 -41.78277362
-20.68212116 13.2 -41.08831785
-24.65571509 13.2 -40.01369408
-27.99786731 13.2 -37.75075398
-29.14629421 13.2 -32.96200136
-31.86687165 13.2 -30.33978397
-33.57170083 13.2 -26.86895799
-32.42731488 13.2 -21.66723909
-35.91887386 13.2 -19.76953466
-35.65418047 13.2 -15.80441125
-36.87868569 13.2 -12.68710139
-39.77128138 13.2 -9.962187376
-45.41586524 13.2 -7.307474593
-49.86452283 13.2 -3.67822818
-51.9960845 13.2 0.6381199909
-47.76886688 13.2 4.704822736
-40.30732498 13.2 7.504635406
-35.65971443 13.2 9.868372027
-32.80686542 13.2 12.19465381
-30.73563597 13.2 14.53687318
-29.37507711 13.2 17.12030505
-28.61546846 13.2 20.1532867
-27.54602156 13.2 23.17793554
-26.87005769 13.2 26.87005769
-26.39709326 13.2 31.37185789
-24.18394404 13.2 34.33856215
-20.64507373 13.2 35.4228871
-18.81242411 13.2 39.7755289
-14.28516589 13.2 38.43089949
-10.93522306 13.2 39.5148187
-7.321595518 13.2 39.3242195
-4.018702754 13.2 40.80257379
-0.4785899931 13.2 38.99706337
-9.797174393e-15 12.8 40
-3.346095181 12.8 38.85619188
-6.667513662 12.8 38.42582805
-9.684895065 12.8 36.7451059
-13.47559414 12.8 37.66176261
-17.07361196 12.8 37.27588731
-20.20882588 12.8 35.67356664
-22.62927243 12.8 32.98357211
-27.9133045 12.8 34.01245995
-29.33180248 12.8 30.06069466
-31.04556271 12.8 26.78008656
-31.60783073 12.8 22.84611644
-29.16277274 12.8 17.4794933
-34.1496297 12.8 16.66741706
-32.65474796 12.8 12.59632628
-32.65463766 12.8 9.469669439
-34.32748481 12.8 6.828161271
-38.76237183 12.8 4.298666084
-44.98644684 12.8 1.104355284
-49.90590565 12.8 -3.066036815
-50.44800201 12.8 -7.483254197
-43.78229785 12.8 -10.39761487
-39.88018358 12.8 -13.1746331
-34.92632636 12.8 -14.97169752
-32.63108678 12.8 -17.44167926
-31.01431411 12.8 -20.17702457
-30.74551068 12.8 -23.99403203
-31.50413368 12.8 -29.26584291
-27.53391715 12.8 -30.37899614
-26.64248582 12.8 -35.0168238
-25.67988575 12.8 -40.55297113
-22.10585813 12.8 -42.60670178
-18.75148819 12.8 -45.27009709
-14.19427962 12.8 -44.8053839
-10.07865705 12.8 -44.88229798
-5.921551174 12.8 -43.59971596
-2.109909996 12.8 -42.94820462
1.619517809 12.8 -43.97018492
5.508480384 12.8 -44.66157906
9.527123305 12.8 -45.00259905
14.22394919 12.8 -46.89007645
16.33795653 12.8 -40.85426754
20.23250983 12.8 -40.19509355
20.45899762 12.8 -33.20285253
24.42367148 12.8 -32.93150879
25.17179955 12.8 -28.46718299
28.24563624 12.8 -26.89208124
25.76432854 12.8 -20.62036311
27.43849721 12.8 -18.33381769
27.15817292 12.8 -14.94769693
28.34050243 12.8 -12.56248073
27.42261244 12.8 -9.433998473
29.1009376 12.8 -7.289405397
34.55554964 12.8 -5.560035017
41.88619918 12.8 -3.089711671
47.99638569 12.8 0.5890338377
46.77368215 12.8 4.606805595
41.29043047 12.8 7.687675294
34.69593837 12.8 9.601659269
30.93218739 12.8 11.49781645
30.73563597 12.8 14.53687318
30.23904996 12.8 17.62384343
28.61546846 12.8 20.1532867
28.31118883 12.8 23.82176709
28.99137803 12.8 28.99137803
25.10943017 12.8 29.84152336
23.03232766 12.8 32.70339253
18.6309202 12.8 31.96699568
15.81953846 12.8 33.44760385
13.93674721 12.8 37.49356048
9.868372027 12.8 35.65971443
7.13855563 12.8 38.34111401
3.822668473 12.8 38.81220434
0.515404608 12.8 41.99683748
0 12.4 38
3.174500557 12.4 36.86356665
6.667513662 12.4 38.42582805
9.939760725 12.4 37.71208237
13.81248399 12.4 38.60330667
16.6571824 12.4 36.36671932
18.7301313 12.4 33.06330566
21.49780881 12.4 31.33439351
24.74133808 12.4 30.14740768
25.14154498 12.4 25.76630971
28.77393617 12.4 24.82056803
29.98691634 12.4 21.67452073
29.16277274 12.4 17.4794933
31.4536063 12.4 15.35156835
31.72175516 12.4 12.23643124
33.61506818 12.4 9.748189128
34.32748481 12.4 6.828161271
38.76237183 12.4 4.298666084
44.98644684 12.4 1.104355284
46.91155131 12.4 -2.882074606
42.53458993 12.4 -6.309410402
35.02583828 12.4 -8.318091898
30.38490178 12.4 -10.03781569
28.4925294 12.4 -12.21375324
26.45763793 12.4 -14.1419021
27.66141528 12.4 -17.99572462
25.22708568 12.4 -19.6874109
26.37555378 12.4 -24.50163592
25.51924028 12.4 -28.15614276
21.79839749 12.4 -28.65012857
21.3999048 12.4 -33.79414261
17.96100973 12.4 -34.6179452
16.07270416 12.4 -38.80294037
13.59026772 12.4 -42.89877182
10.73596077 12.4 -47.80940437
6.3252933 12.4 -46.57242387
2.306180693 12.4 -46.94338644
-1.656325032 12.4 -44.96950731
-5.508480384 12.4 -44.66157906
-9.320011929 12.4 -44.02428168
-13.35309515 12.4 -44.01925544
-17.82322531 12.4 -44.56829186
-22.48056648 12.4 -44.66121506
-26.22948413 12.4 -42.56775966
-28.59356662 12.4 -38.55396151
-30.47112577 12.4 -34.46027415
-31.86687165 12.4 -30.33978397
-32.01022637 12.4 -25.61923901
-34.92172372 12.4 -23.33394979
-34.16673367 12.4 -18.80516711
-32.91155121 12.4 -14.5886873
-35.93307836 12.4 -12.3617911
-40.74131263 12.4 -10.20516756
-43.4412624 12.4 -6.989758307
-49.86452283 12.4 -3.67822818
-51.9960845 12.4 0.6381199909
-46.77368215 12.4 4.606805595
-40.30732498 12.4 7.504635406
-36.6234905 12.4 10.13508478
-32.80686542 12.4 12.19465381
-31.63962526 12.4 14.96442827
-31.96699568 12.4 18.6309202
-29.43305327 12.4 20.72909489
-28.31118883 12.4 23.82176709
-28.28427125 12.4 28.28427125
-26.39709326 12.4 31.37185789
