# .PCD v0.7 - Point Cloud Data file format
VERSION 0.7
FIELDS x y z
SIZE 4 4 4
TYPE F F F
COUNT 1 1 1
WIDTH 1653
HEIGHT 1
VIEWPOINT 0 0 0 1 0 0 0
POINTS 1653
DATA ascii
-7.24247083 90.8 6.895405447
-4.636910443 90.8 5.243954762
-2.382797218 90.8 3.212830126
-1.573769048 90.8 2.554065579
-3.596890637 90.8 7.14579441
-5.198440715 90.8 12.99908513
-6.3862629 90.8 21.05268739
-5.592007157 90.8 26.41456901
-3.917141606 90.8 31.75934511
-1.177831134 90.8 31.97831631
2.011774647 90.4 40.9506137
6.863616134 90.4 50.53603441
10.07865705 90.4 44.88229798
12.08023797 90.4 38.13224161
14.54197043 90.4 35.10742224
16.57939359 90.4 31.95502633
19.25991432 90.4 30.41472835
21.19288645 90.4 27.85429166
22.16144551 90.4 24.45138714
19.04901106 90.4 17.69562594
12.61354284 90.4 9.843705449
5.867572939 90.4 3.817274919
0 90.4 0
-0.9191138517 90.4 -0.3939920401
0.9495281806 90.4 0.3136817404
4.864699761 90.4 1.155290541
8.90258859 90.4 1.32057427
11.97741735 90.4 0.7358488356
16.99487992 90.4 -0.4172008849
20.87204637 90.4 -2.314666353
23.53884673 90.4 -4.682167728
24.9711935 90.4 -7.241511924
24.25781277 90.4 -9.35727095
22.46686164 90.4 -10.96540596
20.58548664 90.4 -12.33846586
17.01960116 90.4 -12.30175501
14.38696808 90.4 -12.41028402
11.17401999 90.4 -11.4516932
8.881505978 90.4 -10.82214635
6.788781729 90.4 -9.895071633
4.43608373 90.4 -7.83078292
2.915006921 90.4 -6.364175882
1.01066956 90.4 -2.824632196
0.2548656596 90.4 -0.966976471
-0.3419237775 90.4 1.970555285
-0.4289865617 90.4 4.981563061
-6.123233996e-16 90.4 5
0.4289865617 90.4 4.981563061
1.196733221 90.4 6.896943497
1.529193958 90.4 5.801858826
2.02133912 90.4 5.649264391
2.498577361 90.4 5.455007899
2.464490961 90.4 4.350434956
0.5657318108 90.4 0.8245893028
-0.6343932842 90.4 -0.7730104534
-2.095128748 90.4 -2.147192476
-4.543253079 90.4 -3.919037058
-7.294114784 90.4 -5.272180717
-8.5772861 90.4 -5.141027442
-10.78409359 90.4 -5.263394862
-13.06189918 90.4 -5.038530511
-15.36688831 90.4 -4.45631503
-17.65413505 90.4 -3.511625796
-19.8781394 90.4 -2.204444146
-22.99307283 90.4 -0.564448256
-22.9567166 90.4 1.410376935
-23.74023624 90.4 3.521531387
-23.35055885 90.4 5.545394599
-20.88961997 90.4 6.900998289
-19.30139089 90.4 8.273832841
-14.99266149 90.4 8.013744526
-11.73514588 90.4 7.634549838
-9.460157132 90.4 7.382779087
-5.128579902 90.4 4.764206985
-3.357794774 90.4 3.704755627
-1.816533124 90.4 2.387510714
-1.06999524 90.4 1.68970713
-2.302693555 90.4 4.438198102
-5.740251485 90.4 13.85819299
-6.040118986 90.4 19.06612081
-5.477531004 90.4 24.39255325
-4.037421255 90.4 29.72707906
-1.570165578 90.4 31.9614546
1.435481695 90 38.973573
5.753301734 90 46.64653813
9.734234681 90 45.98091642
11.32110241 90 37.32067309
13.73873618 90 34.35472498
16.18600787 90 32.15607484
19.40981826 90 31.50014214
21.44517496 90 28.91547113
21.19730488 90 23.97236462
18.83042416 90 17.92805416
12.49179566 90 9.99775181
5.820287286 90 3.888991631
0.8760700942 90 0.4821837721
-0.9142097557 90 -0.405241314
0 90 0
0.9700312532 90 0.2429801799
4.936507091 90 0.7942907167
8.97561411 90 0.6620810724
12.99902112 90 -0.1595299977
17.91332508 90 -1.764308526
20.64521524 90 -3.843837647
24.09440164 90 -6.667818937
23.4334753 90 -8.710467006
22.59973233 90 -10.68887734
19.87137569 90 -11.58138283
17.98686589 90 -12.66778021
15.30334531 90 -12.87663086
12.72792206 90 -12.72792206
9.657473143 90 -11.47750898
7.485506488 90 -10.62860257
5.035383837 90 -8.639728561
2.565330561 90 -5.423935759
1.045256041 90 -2.812017036
0.5334255149 90 -1.927552132
-0.3660797759 90 1.966210975
-0.294051421 90 2.98555418
-0.06135769143 90 4.999623509
0.4413873816 90 5.98374274
1.112007003 90 6.911109927
1.457881079 90 5.820187519
2.277172045 90 6.619251278
2.431447884 90 5.485258534
1.928735088 90 3.504280377
1.111140466 90 1.662939225
-0 90 -0
-2.068621634 90 -2.172741249
-3.745681973 90 -3.312078888
-6.425660252 90 -4.765594436
-7.662196738 90 -4.721307144
-9.825467313 90 -4.945724626
-12.99908513 90 -5.198440715
-15.31104537 90 -4.644554836
-16.6313953 90 -3.520893395
-18.85711116 90 -2.325802829
-19.98644769 90 -0.7361444588
-22.97229549 90 1.12855651
-22.79076061 90 3.095356296
-22.44114899 90 5.039328524
-23.83265101 90 7.550148733
-18.47759065 90 7.653668647
-16.86515279 90 8.750235508
-13.51765704 90 8.559961918
-9.550042855 90 7.266132497
-7.409511254 90 6.715589548
-5.444807982 90 5.861234173
-3.076157953 90 3.941732138
-1.635974965 90 2.514674117
-2.356983684 90 4.409606322
-4.727904481 90 11.02936622
-7.214680029 90 21.83914815
-5.776452707 90 24.32349881
-4.401914234 90 29.6752953
-1.962263562 90 31.93977961
0.9325666839 89.6 37.98855511
5.29066595 89.6 47.70753456
9.364335457 89.6 47.07769346
11.41930726 89.6 39.3776513
13.67601139 89.6 35.45372636
15.79018459 89.6 32.35228076
19.53590428 89.6 32.59368718
21.08872287 89.6 29.17645914
21.55470382 89.6 24.98789193
20.04046311 89.6 19.55453498
15.46020907 89.6 12.68786568
8.245893028 89.6 5.657318108
3.480347964 89.6 1.971592769
0 89.6 0
0 89.6 0
3.867905884 89.6 1.019462638
6.896943497 89.6 1.196733221
12.95206396 89.6 1.11536506
14 89.6 8.572527594e-16
19.92625224 89.6 -1.715946247
22.66138577 89.6 -3.932123441
23.20743531 89.6 -6.116775831
22.59705756 89.6 -8.085356481
23.63836756 89.6 -10.82716856
20.88208779 89.6 -11.82955661
18.96555396 89.6 -13.01183165
15.46020907 89.6 -12.68786568
12.88315486 89.6 -12.57077249
10.45076549 89.6 -12.11534154
7.615372147 89.6 -10.53594358
5.655130186 89.6 -9.43501471
3.07031367 89.6 -6.29072126
1.439580146 89.6 -3.731971195
0.2785196894 89.6 -0.9604305194
-0.195090322 89.6 0.9807852804
-0.3306666219 89.6 2.98172091
-0.1227061426 89.6 4.998494093
0.3679244178 89.6 5.988708677
1.027113321 89.6 6.92423557
1.38634865 89.6 5.837639713
1.882090442 89.6 5.697169084
1.9699602 89.6 4.595569258
1.885586947 89.6 3.527685057
0.5453249884 89.6 0.8382247056
-0 89.6 -0
-1.361201996 89.6 -1.465308543
-3.704755627 89.6 -3.357794774
-5.570858332 89.6 -4.23857729
-8.448535652 89.6 -5.349976199
-10.65167544 89.6 -5.526464531
-12.01043392 89.6 -4.974884621
-14.29959061 89.6 -4.53008924
-17.56263834 89.6 -3.943822323
-18.82715007 89.6 -2.557033462
-18.97711367 89.6 -0.9322858122
-22.98441485 89.6 0.8465661277
-22.8270293 89.6 2.81544553
-22.50129953 89.6 4.763561652
-22.00962772 89.6 6.676547577
-20.42713377 89.6 8.168978267
-16.97126172 89.6 8.542615263
-14.47303828 89.6 8.918024606
-10.44169791 89.6 7.744090958
-7.491363945 89.6 6.624157776
-5.516324358 89.6 5.793976664
-3.124297441 89.6 3.903686143
-1.111140466 89.6 1.662939225
-1.928735088 89.6 3.504280377
-4.862895768 89.6 10.97051707
-6.506205843 89.6 18.91214651
-6.317484677 89.6 25.22081258
-4.606886157 89.6 28.63174113
-2.427630599 89.6 32.91058507
0.4417753783 89.2 35.99728927
4.606805595 89.2 46.77368215
8.96895451 89.2 48.17216888
11.20193581 89.2 40.47859476
13.93674721 89.2 37.49356048
15.39198336 89.2 32.54361455
18.12738181 89.2 31.10302282
21.30490308 89.2 30.25063809
21.89027246 89.2 26.01568703
21.21320344 89.2 21.21320344
15.30334531 89.2 12.87663086
8.993432945 89.2 6.333890106
2.591918568 89.2 1.510615151
0 89.2 0
0 89.2 0
0.9637760658 89.2 0.2667127575
5.898632925 89.2 1.098239328
9.951847267 89.2 0.9801714033
12.99902112 89.2 0.1595299977
18.94851868 89.2 -1.397726708
22.70793262 89.2 -3.653737297
22.31071882 89.2 -5.588544138
22.69457581 89.2 -7.807447012
21.94103414 89.2 -9.725791536
21.02568226 89.2 -11.57241053
16.62939225 89.2 -11.11140466
14.83400734 89.2 -11.87233027
13.03644749 89.2 -12.41172981
10.59865244 89.2 -11.98618231
7.744090958 89.2 -10.44169791
5.245896827 89.2 -8.513551931
4.046501967 89.2 -8.039018711
2.227903164 89.2 -5.571036483
1.161138709 89.2 -3.827761343
0 89.2 -0
-0.1224106752 89.2 0.9924795346
-0.1472288918 89.2 3.997289538
0.3434737203 89.2 6.991568193
0.6729035425 89.2 4.954513177
1.314607441 89.2 5.85421278
2.114041645 89.2 6.673142282
1.913417162 89.2 4.619397663
2.302693555 89.2 4.438198102
1.06999524 89.2 1.68970713
-0 89.2 -0
-1.34311791 89.2 -1.481902251
-2.930617087 89.2 -2.722403991
-6.306771421 89.2 -4.921852725
-7.54402235 89.2 -4.907924896
-10.58305517 89.2 -5.656760842
-11.94848007 89.2 -5.121896521
-14.24292271 89.2 -4.705226106
-16.53997919 89.2 -3.927987841
-16.81600067 89.2 -2.494418066
-19.96236226 89.2 -1.226414726
-21.99337401 89.2 0.5399070275
-21.86595334 89.2 2.42488856
-22.55806145 89.2 4.487077406
-22.08990195 89.2 6.405952856
-19.59284878 89.2 7.557795767
-17.07481485 89.2 8.333708532
-12.86592915 89.2 7.711541163
-10.53594358 89.2 7.615372147
-7.572088465 89.2 6.53172843
-4.888633746 89.2 5.010115777
-2.537573137 89.2 3.092041813
-1.697195432 89.2 2.473767908
-1.478694577 89.2 2.610260973
-4.164295601 89.2 9.091679831
-6.400907214 89.2 17.88933724
-6.62650715 89.2 25.14138825
-4.957894774 89.2 28.57305163
-2.91710862 89.2 33.87462881
0 88.8 36
3.860879055 88.8 44.83406755
8.719056327 88.8 50.24915976
11.21408902 88.8 42.54696473
13.13870428 88.8 36.72021854
15.82432328 88.8 34.54838336
18.7301313 88.8 33.06330566
21.49780881 88.8 31.33439351
20.93497838 88.8 25.50934496
20.95128748 88.8 21.47192476
17.41580347 88.8 15.02297539
8.915029181 88.8 6.443776432
4.28864305 88.8 2.570513721
0.8986744657 88.8 0.4386162385
0 88.8 0
2.881291558 88.8 0.8355590682
3.923141122 88.8 0.7803612881
8.94516273 88.8 0.9919998656
12.99608464 88.8 0.3190359708
16.96800792 88.8 -1.042452517
20.77270671 88.8 -3.081339964
21.40467895 88.8 -5.083278382
20.88961997 88.8 -6.900998289
22.05873244 88.8 -9.455808961
20.28418908 88.8 -10.84212495
18.44094352 88.8 -11.99714975
15.76692855 88.8 -12.30463181
13.18777689 88.8 -12.25081796
10.74494328 88.8 -11.85521801
8.47715458 88.8 -11.14171666
5.884973819 88.8 -9.293389218
4.144848399 88.8 -7.988756584
1.913417162 88.8 -4.619397663
1.208023797 88.8 -3.813224161
0.4382024803 88.8 -1.95140426
-0.1345807085 88.8 0.9909026354
-0.1962706973 88.8 3.995181825
0.1472288918 88.8 3.997289538
0.7344640512 88.8 5.954877208
1.035556881 88.8 4.891586854
1.741708064 88.8 5.741642014
1.485268776 88.8 3.714024322
1.798445319 88.8 3.572897205
1.049179365 88.8 1.702710386
-0 88.8 -0
-1.324831555 88.8 -1.498272789
-3.621235415 88.8 -3.447702724
-6.245897829 88.8 -4.998875905
-8.314696123 88.8 -5.55570233
-9.636771036 88.8 -5.304021493
-11.88472682 88.8 -5.268137082
-14.18410988 88.8 -4.879654382
-15.52050005 88.8 -3.887682878
-17.77142553 88.8 -2.85944658
-19.94580913 88.8 -1.471291272
-20.99841874 88.8 0.257702304
-21.89406399 88.8 2.156377087
-22.61142621 88.8 4.209917423
-21.20307345 88.8 5.867680664
-19.68411925 88.8 7.316792285
-17.17579657 88.8 8.123546775
-12.95959284 88.8 7.553075756
-11.44618738 88.8 8.06131468
-6.886505391 88.8 5.794483886
-5.656854249 88.8 5.656854249
-2.575326172 88.8 3.060669062
-1.727424574 88.8 2.452754439
-1.007076767 88.8 1.727945712
-4.703106028 88.8 9.943882224
-6.619954925 88.8 17.80944123
-6.667818937 88.8 24.09440164
-5.125116863 88.8 27.52695365
-3.136548491 88.8 31.84591125
-0.4540469166 88.8 36.99721397
3.383969926 88.4 45.87536101
8.260623453 88.4 51.33967374
10.9341081 88.4 43.65140639
13.33772198 88.4 38.76990034
15.39916993 88.4 34.73997072
17.35861579 88.4 31.53852339
21.66723909 88.4 32.42731488
22.49494157 88.4 28.10654023
20.68621634 88.4 21.72741249
17.23013707 88.4 15.23556288
10.44169791 88.4 7.744090958
4.256775966 88.4 2.622948413
0 88.4 0
0.9285060805 88.4 0.371317194
1.913880671 88.4 0.5805693545
4.891586854 88.4 1.035556881
6.947356742 88.4 0.8568747264
11.99186862 88.4 0.4416866753
15.9807273 88.4 -0.7850827892
18.82715007 88.4 -2.557033462
21.46544686 88.4 -4.820227283
20.01942685 88.4 -6.342124936
20.32534972 88.4 -8.419035512
20.41571127 88.4 -10.59239035
18.58677844 88.4 -11.76994764
15.91673809 88.4 -12.11022083
13.33712026 88.4 -12.08806119
10.88961596 88.4 -11.72246835
9.228473859 88.4 -11.82519641
6.543899861 88.4 -10.05869647
4.242570631 88.4 -7.937291379
2.36395224 88.4 -5.51468311
1.568408702 88.4 -4.747640903
0.2310581083 88.4 -0.9729399522
0 88.4 -0
-0.1839622089 88.4 2.994354339
0.07362368557 88.4 2.999096456
0.5511110365 88.4 4.96953485
0.9754516101 88.4 4.903926402
0.8355590682 88.4 2.881291558
1.439580146 88.4 3.731971195
1.315848716 88.4 2.696023397
1.028205488 88.4 1.71545722
-0 88.4 -0
-1.306345686 88.4 -1.514417693
-3.578654126 88.4 -3.491881247
-5.411073174 88.4 -4.440752989
-6.596714422 88.4 -4.525854486
-9.570956902 88.4 -5.421880115
-10.9100158 88.4 -4.997154721
-14.12316098 88.4 -5.053347801
-16.43860001 88.4 -4.332716213
-18.72027521 88.4 -3.248275886
-17.93362702 88.4 -1.544351622
-19 88.4 -3.490243378e-15
-20.92256486 88.4 1.801743559
-21.67610813 88.4 3.761161553
-21.27348236 88.4 5.607044511
-19.77242537 88.4 7.074686921
-17.27419168 88.4 7.912161642
-13.92139186 88.4 7.886371076
-11.54425024 88.4 7.920245351
-9.27612544 88.4 7.61271941
-5.725846602 88.4 5.587009995
-3.919037058 88.4 4.543253079
-1.757393572 88.4 2.431371595
-1.028205488 88.4 1.71545722
-3.508929908 88.4 7.189395726
-6.118215621 88.4 15.86087758
-6.405952856 88.4 22.08990195
-5.657619338 88.4 28.44277313
-3.637332841 88.4 32.79893001
-0.7607780842 88.4 30.99066338
2.759433134 88 44.91531508
7.629984672 88 51.43717852
10.85973109 88 45.72817775
12.86095136 88 38.9306554
14.97169752 88 34.92632636
17.44167926 88 32.63108678
20.72234956 88 31.85253881
20.91787408 88 26.80377854
21.09863093 88 22.71228242
17.78282701 88 16.11741492
11.93755357 88 9.082665621
5.069121391 88 3.209985719
1.775279241 88 0.9210774219
0 88 0
0 88 0
3.90280852 88 0.8764049606
5.945415813 88 0.807484251
11.98554547 88 0.5888120919
14.98983577 88 -0.5521083441
18.85711116 88 -2.325802829
21.52298216 88 -4.556450276
22.00962772 88 -6.676547577
21.35563985 88 -8.540295461
20.54415893 88 -10.34106058
18.72981425 88 -11.54097302
16.06415063 88 -11.91398609
14.2335915 88 -12.58589977
11.72218926 88 -12.31220041
9.372892322 88 -11.71105843
6.111272563 88 -9.146165735
5.304021493 88 -9.636771036
3.241930512 88 -7.313678046
1.626551461 88 -4.728036627
0.7289405397 88 -2.91009376
0.3177162867 88 -1.974602836
-0.1471291272 88 1.994580913
0.04908615314 88 3.999698807
0.294051421 88 2.98555418
0.7321595518 88 3.93242195
0.8001382724 88 2.891328197
1.045256041 88 2.812017036
1.28266528 88 2.711967879
0.5035383837 88 0.8639728561
-0.5758081914 88 -0.8175848132
-1.931494629 88 -2.295501797
-3.535533906 88 -3.535533906
-5.356170859 88 -4.5068208
-6.540678505 88 -4.606465531
-9.503701417 88 -5.538922221
-11.75186081 88 -5.558216215
-13.12274617 88 -4.877861523
-15.42041705 88 -4.26740412
-16.71279329 88 -3.111678095
-17.91332508 88 -1.764308526
-18.99856933 88 -0.2331592274
-21.94039005 88 1.618420399
-20.73332978 88 3.33602101
-20.37065632 88 5.102583778
-19.85775383 88 6.831516135
-18.28419511 88 8.10482628
-14.01712151 88 7.714940353
-11.64057457 88 7.777983262
-9.368846743 88 7.498313858
-5.793976664 88 5.516324358
-2.64966311 88 2.996545578
-1.787097913 88 2.409622594
-2.622948413 88 4.256775966
-2.248056648 88 4.466121506
-4.827123521 88 12.07057905
-6.966832254 88 22.96656806
-5.799118533 88 27.39288638
-4.161962957 88 33.74430418
-1.288252803 88 34.97628346
1.962706973 87.6 39.95181825
6.729035425 87.6 49.54513177
10.51685953 87.6 46.83370224
12.08023797 87.6 38.13224161
14.92465386 87.6 36.03130177
17.03993231 87.6 32.84266595
18.7249167 87.6 29.56987478
21.19288645 87.6 27.85429166
20.14676865 87.6 22.22853376
19.78166534 87.6 18.37622694
12.61354284 87.6 9.843705449
7.54402235 87.6 4.907924896
0.8819212643 87.6 0.4713967368
-0.9191138517 87.6 -0.3939920401
0.9495281806 87.6 0.3136817404
3.891759809 87.6 0.9242324331
5.93505906 87.6 0.8803828467
9.981181129 87.6 0.613207363
13.99578346 87.6 -0.3435771993
16.89641849 87.6 -1.873777524
20.59649089 87.6 -4.096896762
20.16904091 87.6 -5.848913477
21.45883437 87.6 -8.27758584
20.66951271 87.6 -10.08817349
18.87002942 87.6 -11.31026037
16.20914397 87.6 -11.71595715
15.14417693 87.6 -13.06345686
11.17401999 87.6 -11.4516932
9.515899262 87.6 -11.5951568
7.35451354 87.6 -10.71966094
5.421880115 87.6 -9.570956902
3.747866041 87.6 -8.182511848
2.358228974 87.6 -6.590808456
1.274328298 87.6 -4.834882355
0.1709618888 87.6 -0.9852776424
-0.08579731234 87.6 0.9963126122
-2.449293598e-16 87.6 2
0.3431892494 87.6 3.985250449
0.5128856663 87.6 2.955832927
1.019462638 87.6 3.867905884
1.347559414 87.6 3.766176261
1.24928868 87.6 2.727503949
0.4928981922 87.6 0.8700869911
-0.5657318108 87.6 -0.8245893028
-1.268786568 87.6 -1.546020907
-3.491881247 87.6 -3.578654126
-5.300461926 87.6 -4.572209901
-8.104571983 87.6 -5.857978575
-9.43501471 87.6 -5.655130186
-9.885419123 87.6 -4.824778624
-13.99489198 87.6 -5.398425548
-16.32731883 87.6 -4.73483472
-15.69256449 87.6 -3.121445152
-17.89032546 87.6 -1.983999731
-18.99427756 87.6 -0.4662833419
-19.96236226 87.6 1.226414726
-21.76188322 87.6 3.228070438
-20.431739 87.6 4.852220274
-18.99056361 87.6 6.273634808
-17.46316318 87.6 7.485848761
-14.99266149 87.6 8.013744526
-11.73514588 87.6 7.634549838
-8.671810704 87.6 6.767547496
-7.326542717 87.6 6.806009978
-4.029353729 87.6 4.445706752
-3.027555207 87.6 3.979184523
-1.06999524 87.6 1.68970713
-2.763232266 87.6 5.325837722
-5.740251485 87.6 13.85819299
-6.946136834 87.6 21.92603893
-6.134834724 87.6 27.31965964
-4.441163381 87.6 32.69978697
-1.717368601 87.6 34.95784097
1.472288918 87.2 39.97289538
6.242944435 87.2 50.61645626
10.35556881 87.2 48.91586854
12.19195644 87.2 40.1914941
14.11005337 87.2 35.28323106
16.6356192 87.2 33.04929914
19.40981826 87.2 31.50014214
20.84947566 87.2 28.1122636
21.19730488 87.2 23.97236462
17.38192999 87.2 16.54897307
14.83400734 87.2 11.87233027
7.483226511 87.2 5.000132097
2.628210283 87.2 1.446551316
0 87.2 0
-0.9456073254 87.2 -0.3253102922
1.940062506 87.2 0.4859603598
5.923808509 87.2 0.95314886
9.972904567 87.2 0.735645636
11.99909642 87.2 -0.1472584594
16.91814035 87.2 -1.666291386
18.67900426 87.2 -3.477757871
20.23929738 87.2 -5.600967907
19.68411925 87.2 -7.316792285
18.98377516 87.2 -8.978656962
18.14342998 87.2 -10.57430606
16.35169626 87.2 -11.51616383
14.53817805 87.2 -12.23279931
12.02081528 87.2 -12.02081528
9.657473143 87.2 -11.47750898
8.06131468 87.2 -11.44618738
6.042460605 87.2 -10.36767427
4.275550934 87.2 -9.039892931
2.438930762 87.2 -6.561373083
1.333563787 87.2 -4.818880329
0.3660797759 87.2 -1.966210975
0 87.2 -0
0 87.2 -0
0.0735645636 87.2 0.9972904567
0.6354325733 87.2 3.949205673
0.7289405397 87.2 2.91009376
0.3253102922 87.2 0.9456073254
0.810482628 87.2 1.828419511
-0 87.2 -0
-0.555570233 87.2 -0.8314696123
-1.874578464 87.2 -2.342211686
-2.758162179 87.2 -2.896988332
-5.993091156 87.2 -5.299326221
-7.228867783 87.2 -5.36129374
-9.364907124 87.2 -5.770486509
-10.71869161 87.2 -5.395335956
-11.14207297 87.2 -4.455806327
-14.35410504 87.2 -4.354270159
-15.65307793 87.2 -3.313782019
-15.87967255 87.2 -1.958570803
-17.98780292 87.2 -0.6625300129
-18.97711367 87.2 0.9322858122
-19.81805271 87.2 2.69161417
-20.48974473 87.2 4.601126043
-18.11281477 87.2 5.738113037
-17.55371112 87.2 7.270985215
-15.08987355 87.2 7.829158086
-11.82794991 87.2 7.489966678
-9.550042855 87.2 7.266132497
-5.927609003 87.2 5.372471639
-4.764206985 87.2 5.128579902
-1.845694772 87.2 2.365039283
-1.635974965 87.2 2.514674117
-1.885586947 87.2 3.527685057
-5.909880601 87.2 13.78670778
-7.214680029 87.2 21.83914815
-5.776452707 87.2 24.32349881
-4.988836131 87.2 33.63200134
-2.084905034 87.2 33.93601584
0.9816491409 86.8 39.98795275
5.29066595 86.8 47.70753456
10.33978707 86.8 51.98161986
11.97634664 86.8 41.29851233
14.03590642 86.8 36.38671915
16.22880083 86.8 33.25095523
18.50769879 86.8 30.87822996
20.50292501 86.8 28.36600194
21.55470382 86.8 24.98789193
20.04046311 86.8 19.55453498
15.46020907 86.8 12.68786568
9.895071633 86.8 6.788781729
3.480347964 86.8 1.971592769
-0.9091679831 86.8 -0.4164295601
0 86.8 0
1.933952942 86.8 0.5097313192
4.926388212 86.8 0.8548094438
7.970500897 86.8 0.6863784988
10 86.8 6.123233996e-16
13.94837657 86.8 -1.201162373
16.74971992 86.8 -2.906352109
18.37255295 86.8 -4.842447532
18.8308813 86.8 -6.737797068
19.09252764 86.8 -8.745020762
17.40173982 86.8 -9.857963845
14.84260745 86.8 -10.18317259
13.91418816 86.8 -11.41907911
12.88315486 86.8 -12.57077249
9.144419801 86.8 -10.60092385
7.615372147 86.8 -10.53594358
6.683335675 86.8 -11.15047193
4.386162385 86.8 -8.986744657
2.879160292 86.8 -7.463942391
1.392598447 86.8 -4.802152597
0.7803612881 86.8 -3.923141122
0.2204444146 86.8 -1.98781394
0 86.8 -0
0.0613207363 86.8 0.9981181129
0.2934609489 86.8 1.97835302
0.4621162166 86.8 1.945879904
0.6273634808 86.8 1.899056361
-0 86.8 -0
-0 86.8 -0
-1.090649977 86.8 -1.676449411
-3.076157953 86.8 -3.941732138
-4.083605987 86.8 -4.39592563
-5.186657877 86.8 -4.700912684
-7.162532141 86.8 -5.449599373
-8.448535652 86.8 -5.349976199
-10.65167544 86.8 -5.526464531
-12.93431346 86.8 -5.357568053
-14.29959061 86.8 -4.53008924
-14.63553195 86.8 -3.286518602
-16.8453448 86.8 -2.287872045
-16.97952276 86.8 -0.8341504636
-16.98848054 86.8 0.62572279
-18.85711116 86.8 2.325802829
-17.60971267 86.8 3.728004771
-17.22492604 86.8 5.225124191
-16.71310945 86.8 6.683709491
-14.29158882 86.8 7.193781274
-11.9189727 86.8 7.344255557
-8.032075315 86.8 5.956993045
-7.491363945 86.8 6.624157776
-4.137243268 86.8 4.345482498
-4.374016417 86.8 5.4651606
-2.222280932 86.8 3.325878449
-2.41091886 86.8 4.380350471
-4.457654454 86.8 10.05630731
-6.180895551 86.8 17.96653918
-6.560464857 86.8 26.19084384
-5.401176873 86.8 33.56824822
-2.501195162 86.8 33.90787553
0.4785899931 86.4 38.99706337
4.802839876 86.4 48.76405161
9.701114062 86.4 52.10459083
11.73536133 86.4 42.40614689
13.58832853 86.4 36.55622146
15.39198336 86.4 32.54361455
18.6309202 86.4 31.96699568
20.72909489 86.4 29.43305327
19.31494629 86.4 22.95501797
18.38477631 86.4 18.38477631
15.30334531 86.4 12.87663086
9.811017758 86.4 6.909698297
4.319864281 86.4 2.517691919
0.9039892931 86.4 0.4275550934
-0.9373390119 86.4 -0.3484186802
0 86.4 0
2.949316462 86.4 0.5491196639
7.961477813 86.4 0.7841371226
8.999322317 86.4 0.1104438446
11.96748548 86.4 -0.8827747632
15.79682269 86.4 -2.541730293
16.4905313 86.4 -4.130663058
17.96653918 86.4 -6.180895551
17.36998536 86.4 -7.699584966
16.64533179 86.4 -9.16149167
14.96645302 86.4 -10.00026419
14.83400734 86.4 -11.87233027
12.31220041 86.4 -11.72218926
10.59865244 86.4 -11.98618231
8.339790263 86.4 -11.24490544
6.819665875 86.4 -11.06761751
4.945724626 86.4 -9.825467313
3.341854746 86.4 -8.356554724
2.031992741 86.4 -6.69858235
1.035556881 86.4 -4.891586854
0.612053376 86.4 -4.962397673
0.07361444588 86.4 -1.998644769
-0.04906767433 86.4 -0.9987954562
0.1345807085 86.4 0.9909026354
-0 86.4 -0
-0.3020059493 86.4 -0.9533060404
-0.3826834324 86.4 -0.9238795325
-0.9210774219 86.4 -1.775279241
-1.60499286 86.4 -2.534560696
-3.027555207 86.4 -3.979184523
-4.700912684 86.4 -5.186657877
-5.861234173 86.4 -5.444807982
-7.883464276 86.4 -6.152315906
-9.220471761 86.4 -5.998574873
-10.58305517 86.4 -5.656760842
-12.86759392 86.4 -5.515888561
-13.29339453 86.4 -4.391544366
-15.56703924 86.4 -3.696929732
-14.83764765 86.4 -2.200957117
-15.96988981 86.4 -0.9811317808
-15.9951811 86.4 0.3926596564
-16.89641849 86.4 1.873777524
-17.65413505 86.4 3.511625796
-17.28774935 86.4 5.013354409
-15.86087758 86.4 6.118215621
-12.58144252 86.4 6.14062734
-11.15047193 86.4 6.683335675
-8.915029181 86.4 6.443776432
-6.057670772 86.4 5.225382744
-4.888633746 86.4 5.010115777
-3.171966421 86.4 3.865052267
-1.697195432 86.4 2.473767908
-2.957389153 86.4 5.220521947
-4.997154721 86.4 10.9100158
-6.400907214 86.4 17.88933724
-6.62650715 86.4 25.14138825
-5.47078044 86.4 31.52888456
-3.088703244 86.4 35.86725404
0 86 40
4.03247368 86 46.82669277
9.402903882 86 54.19027033
11.72382034 86 44.48091767
13.47559414 86 37.66176261
15.82432328 86 34.54838336
17.74433492 86 31.32313168
20.36634519 86 29.6852149
20.30058509 86 24.73633451
18.85615873 86 19.32473228
16.65859462 86 14.36980254
10.53594358 86 7.615372147
4.28864305 86 2.570513721
0.8986744657 86 0.4386162385
0 86 0
0 86 0
1.961570561 86 0.390180644
3.97562788 86 0.4408888292
8.997289368 86 0.2208710567
9.981181129 86 -0.613207363
12.85929463 86 -1.907496168
13.62115933 86 -3.234813516
16.14197907 86 -5.332589587
14.70582163 86 -6.303872641
15.87458276 86 -8.485141263
14.24981999 86 -9.270524803
13.40188927 86 -10.45893704
11.72246835 86 -10.88961596
10.74494328 86 -11.85521801
9.082665621 86 -11.93755357
8.559961918 86 -13.51765704
6.447541953 86 -12.42695469
4.209517756 86 -10.16267486
3.020059493 86 -9.533060404
1.752809921 86 -7.80561704
1.076645668 86 -7.927221083
0.2453383716 86 -4.993977281
-0.1472288918 86 -3.997289538
-0.3672320256 86 -2.977438604
-0.6213341286 86 -2.934952112
-0.5805693545 86 -1.913880671
-1.485268776 86 -3.714024322
-2.248056648 86 -4.466121506
-2.622948413 86 -4.256775966
-3.574195827 86 -4.819245189
-5.299326221 86 -5.993091156
-7.24247083 86 -6.895405447
-8.588109514 86 -6.87345437
-10.80910496 86 -7.222413029
-12.26498132 86 -6.750572809
-12.79893658 86 -5.673378396
-14.18410988 86 -4.879654382
-13.58043754 86 -3.401722519
-13.82221985 86 -2.224014007
-12.96477594 86 -0.9563393268
-13.99894583 86 0.171801536
-12.93740145 86 1.274222824
-14.74658231 86 2.745598319
-14.45664099 86 4.000691362
-14.06008518 86 5.226280204
-11.75186081 86 5.558216215
-10.36767427 86 6.042460605
-7.358263318 86 5.182273723
-6.886505391 86 5.794483886
-4.242640687 86 4.242640687
-2.575326172 86 3.060669062
-1.727424574 86 2.452754439
-2.517691919 86 4.319864281
-4.275550934 86 9.039892931
-5.923117564 86 15.9347632
-6.934531694 86 25.05817771
-5.491196639 86 29.49316462
-3.332582771 86 33.83628071
-0.4785899931 86 38.99706337
3.310405362 85.6 44.87807055
8.737197883 85.6 54.301578
11.42006846 85.6 45.5914689
13.33772198 85.6 38.76990034
14.5886873 85.6 32.91155121
17.35861579 85.6 31.53852339
18.88938792 85.6 28.26996682
19.37064413 85.6 24.20285409
19.30713525 85.6 20.27891832
16.48100068 85.6 14.57314711
10.44169791 85.6 7.744090958
4.256775966 85.6 2.622948413
1.786448602 85.6 0.8992226593
-0.9285060805 85.6 -0.371317194
0.9569403357 85.6 0.2902846773
0.9783173707 85.6 0.2071113762
3.969918138 85.6 0.4896427008
5.995934308 85.6 0.2208433376
8.989159106 85.6 -0.4416090689
12.88173426 85.6 -1.749549211
13.65982982 85.6 -3.067417362
14.29959061 85.6 -4.53008924
13.85819299 85.6 -5.740251485
14.20223393 85.6 -7.368619375
15.20736417 85.6 -9.629957158
13.52922738 85.6 -10.2936877
12.59616913 85.6 -11.41650223
11.57021696 85.6 -12.45512262
9.843705449 85.6 -12.61354284
7.634549838 85.6 -11.73514588
6.599554316 85.6 -12.3468977
5.121896521 85.6 -11.94848007
3.136817404 85.6 -9.495281806
2.310581083 85.6 -9.729399522
1.173843796 85.6 -7.91341208
0.4292451541 85.6 -6.98682679
-0.09816491409 85.6 -3.998795275
-0.4408888292 85.6 -3.97562788
-0.7803612881 85.6 -3.923141122
-0.8355590682 85.6 -2.881291558
-1.799475183 85.6 -4.664963994
-2.631697431 85.6 -5.392046794
-3.598719209 85.6 -6.00410027
-4.68638286 85.6 -6.483657586
-5.878555587 85.6 -6.814879619
-7.157308253 85.6 -6.983762494
-8.503114987 85.6 -6.978326126
-9.895071633 85.6 -6.788781729
-11.31113088 85.6 -6.407676499
-13.63751975 85.6 -6.246443401
-14.12316098 85.6 -5.053347801
-13.53767059 85.6 -3.568119234
-14.77916464 85.6 -2.564428331
-14.94468918 85.6 -1.286959685
-14 85.6 -2.571758278e-15
-13.94837657 85.6 1.201162373
-13.79388699 85.6 2.393466443
-13.53767059 85.6 3.568119234
-12.24007285 85.6 4.379568094
-10.9100158 85.6 4.997154721
-9.570956902 85.6 5.421880115
-7.421303725 85.6 5.091586297
-5.411073174 85.6 4.440752989
-3.578654126 85.6 3.491881247
-1.959518529 85.6 2.27162654
-1.757393572 85.6 2.431371595
-2.570513721 85.6 4.28864305
-3.508929908 85.6 7.189395726
-5.758320585 85.6 14.92788478
-6.962992235 85.6 24.01076299
-5.85270966 85.6 29.42355841
-3.747555048 85.6 33.79283698
-0.9571079124 85.6 38.98825393
2.882074606 85.2 46.91155131
7.923445621 85.2 53.41553154
11.32184731 85.2 47.67405766
13.1746331 85.2 39.88018358
14.57770548 85.2 34.00721251
16.49888579 85.2 30.86724425
18.54104961 85.2 28.49963999
19.6874109 85.2 25.22708568
19.05682794 85.2 20.51431961
17.78282701 85.2 16.11741492
11.93755357 85.2 9.082665621
7.603682087 85.2 4.814978579
2.662918861 85.2 1.381616133
-1.847759065 85.2 -0.7653668647
-0.9533060404 85.2 -0.3020059493
1.95140426 85.2 0.4382024803
2.972707906 85.2 0.4037421255
5.992772737 85.2 0.294406046
6.995256692 85.2 -0.2576505606
9.924795346 85.2 -1.224106752
11.73980845 85.2 -2.485336514
12.44022436 85.2 -3.773700804
12.07057905 85.2 -4.827123521
12.50514022 85.2 -6.294558615
12.7703279 85.2 -7.86884524
13.65452804 85.2 -10.12688818
12.73531871 85.2 -11.26106822
11.72218926 85.2 -12.31220041
9.99775181 85.2 -12.49179566
8.889123728 85.2 -13.3035138
7.232756581 85.2 -13.14105141
5.268137082 85.2 -11.88472682
3.903723506 85.2 -11.3472879
2.672781979 85.2 -10.67034379
1.747439577 85.2 -10.8603156
0.5149519452 85.2 -6.981033197
-0.085900768 85.2 -6.999472913
-0.588102842 85.2 -5.97110836
-0.9151994398 85.2 -4.915527437
-1.600276545 85.2 -5.782656395
-1.742093401 85.2 -4.68669506
-2.992885654 85.2 -6.327925052
-3.524768686 85.2 -6.047809993
-5.182273723 85.2 -7.358263318
-6.438315429 85.2 -7.651672656
-8.485281374 85.2 -8.485281374
-9.182007187 85.2 -7.725978515
-10.62860257 85.2 -7.485506488
-12.95959284 85.2 -7.553075756
-13.5598394 85.2 -6.413326401
-14.99742419 85.2 -5.574698884
-14.45664099 85.2 -4.000691362
-12.78037134 85.2 -2.379518543
-13.93258617 85.2 -1.372239965
-12.99902112 85.2 -0.1595299977
-11.96748548 85.2 0.8827747632
-12.83491844 85.2 2.065155863
-12.61040629 85.2 3.158742339
-11.3472879 85.2 3.903723506
-10.05630731 85.2 4.457654454
-7.884630848 85.2 4.339653949
-6.651756898 85.2 4.444561864
-5.4651606 85.2 4.374016417
-4.345482498 85.2 4.137243268
-2.64966311 85.2 2.996545578
-2.382797218 85.2 3.212830126
-3.672127779 85.2 5.959486352
-3.147279308 85.2 6.252570108
-6.312392297 85.2 15.78460337
-7.257116931 85.2 23.92350839
-6.420452662 85.2 30.32783849
-4.284373632 85.2 34.73678371
-1.361867249 85.2 36.97492823
2.15897767 84.8 43.94700007
7.267358259 84.8 53.50874231
11.61236573 84.8 51.71221289
12.68424987 84.8 40.03885369
14.92465386 84.8 36.03130177
16.57939359 84.8 31.95502633
18.7249167 84.8 29.56987478
18.77084228 84.8 24.67094404
18.80365074 84.8 20.74663151
17.58370252 84.8 16.33442395
14.1902357 84.8 11.07416863
6.705797644 84.8 4.362599907
3.527685057 84.8 1.885586947
0 84.8 0
0 84.8 0
0 84.8 0
1.97835302 84.8 0.2934609489
4.990590565 84.8 0.3066036815
6.997891731 84.8 -0.1717885997
8.94516273 84.8 -0.9919998656
10.78863808 84.8 -2.145993542
12.48559675 84.8 -3.620755962
12.12890638 84.8 -4.678635475
12.58144252 84.8 -6.14062734
12.00820054 84.8 -7.197438419
13.77777237 84.8 -9.958563577
12.11534154 84.8 -10.45076549
11.87239624 84.8 -12.16742403
11.41907911 84.8 -13.91418816
8.485977162 84.8 -12.36883954
7.886371076 84.8 -13.92139186
6.246443401 84.8 -13.63751975
4.716457947 84.8 -13.18161691
3.058387915 84.8 -11.60371765
1.709618888 84.8 -9.852776424
0.7721758111 84.8 -8.96681351
9.797174393e-16 84.8 -8
-0.6863784988 84.8 -7.970500897
-1.196733221 84.8 -6.896943497
-1.529193958 84.8 -5.801858826
-2.358228974 84.8 -6.590808456
-3.331436481 84.8 -7.273343865
-3.943185538 84.8 -6.960695929
-5.091586297 84.8 -7.421303725
-6.343932842 84.8 -7.730104534
-8.380514993 84.8 -8.588769903
-8.329297312 84.8 -7.184901272
-11.34640078 84.8 -8.201170004
-12.86592915 84.8 -7.711541163
-13.48011699 84.8 -6.579243578
-13.99489198 84.8 -5.398425548
-14.40645779 84.8 -4.177795341
-14.71177921 84.8 -2.92635483
-14.90860455 84.8 -1.653333109
-12.99608464 84.8 -0.3190359708
-11.97741735 84.8 0.7358488356
-12.85929463 84.8 1.907496168
-11.67527943 84.8 2.772697299
-11.39433817 84.8 3.764180885
-9.191138517 84.8 3.939920401
-8.819212643 84.8 4.713967368
-7.54402235 84.8 4.907924896
-6.306771421 84.8 4.921852725
-4.39592563 84.8 4.083605987
-4.029353729 84.8 4.445706752
-2.422044166 84.8 3.183347618
-2.674988099 84.8 4.224267826
-3.223770977 84.8 6.213477343
-5.740251485 84.8 13.85819299
-7.248142784 84.8 22.87934497
-6.792138445 84.8 30.24676603
-4.575744089 84.8 33.6906896
-1.962706973 84.8 39.95181825
1.656325032 84.4 44.96950731
6.242944435 84.4 50.61645626
10.76979156 84.4 50.87250328
12.7725258 84.4 42.10537477
14.48137056 84.4 36.21173714
16.6356192 84.4 33.04929914
18.36063889 84.4 29.79743176
18.46667844 84.4 24.89943348
18.54764177 84.4 20.97581905
17.38192999 84.4 16.54897307
14.05327011 84.4 11.24747079
9.146165735 84.4 6.111272563
4.380350471 84.4 2.41091886
1.828419511 84.4 0.810482628
0.9456073254 84.4 0.3253102922
-0.9700312532 84.4 -0.2429801799
1.974602836 84.4 0.3177162867
1.994580913 84.4 0.1471291272
5.999548211 84.4 -0.07362922971
6.966293087 84.4 -0.6861199823
9.831054874 84.4 -1.83039888
10.60153672 84.4 -2.933840332
11.24806814 84.4 -4.181024163
12.6558501 84.4 -5.985771308
12.09561999 84.4 -7.049537372
13.08135701 84.4 -9.212931063
12.24267625 84.4 -10.30130469
12.02081528 84.4 -12.02081528
10.30130469 84.4 -12.24267625
9.212931063 84.4 -13.08135701
8.05661414 84.4 -13.8235657
6.413326401 84.4 -13.5598394
5.226280204 84.4 -14.06008518
3.733978605 84.4 -13.49286492
2.379518543 84.4 -12.78037134
1.176205684 84.4 -11.94221672
0.1349869211 84.4 -10.99917172
-0.735645636 84.4 -9.972904567
-1.588581433 84.4 -9.873014182
-1.943841439 84.4 -7.760250026
-2.927792629 84.4 -8.510465928
-3.647171826 84.4 -8.227887801
-4.339653949 84.4 -7.884630848
-6.111272563 84.4 -9.146165735
-7.498313858 84.4 -9.368846743
-8.964027082 84.4 -9.415212078
-10.48790952 84.4 -9.273820886
-12.04811297 84.4 -8.935489567
-13.62168309 84.4 -8.393434923
-14.29158882 84.4 -7.193781274
-15.78460337 84.4 -6.312392297
-15.31104537 84.4 -4.644554836
-13.69644319 84.4 -2.899559267
-13.89471348 84.4 -1.713749453
-11.99186862 84.4 -0.4416866753
-12.98434093 84.4 0.6378797663
-10.89992899 84.4 1.480387794
-11.70842556 84.4 2.629214882
-9.533060404 84.4 3.020059493
-9.238795325 84.4 3.826834324
-7.988756584 84.4 4.144848399
-6.758828522 84.4 4.279980959
-3.979184523 84.4 3.027555207
-3.704755627 84.4 3.357794774
-2.722403991 84.4 2.930617087
-3.076157953 84.4 3.941732138
-3.271949931 84.4 5.029348233
-3.299777158 84.4 6.17344885
-5.121896521 84.4 11.94848007
-7.214680029 84.4 21.83914815
-6.238568924 84.4 26.26937871
-4.988836131 84.4 33.63200134
-2.330187979 84.4 37.92848829
1.030731598 84 41.98735039
5.621332572 84 50.68925547
10.53487739 84 52.96240514
12.25486633 84 42.25894285
13.67601139 84 35.45372636
16.22880083 84 33.25095523
17.99359605 84 30.02050135
19.3313293 84 26.74508754
18.2888396 84 21.2018477
17.17753981 84 16.76102999
13.91418816 84 11.41907911
9.070482331 84 6.223049919
6.090608938 84 3.450287346
0.9091679831 84 0.4164295601
0 84 0
-0.966976471 84 -0.2548656596
2.955832927 84 0.5128856663
1.992625224 84 0.1715946247
3 84 1.836970199e-16
6.974188285 84 -0.6005811864
6.896943497 84 -1.196733221
8.702788239 84 -2.293790936
8.473896587 84 -3.032008681
10.9100158 84 -4.997154721
12.18121788 84 -6.900574691
12.36883954 84 -8.485977162
12.36816725 84 -10.15029255
12.16742403 84 -11.87239624
11.75711117 84 -13.62975924
10.54436143 84 -14.58822957
8.739746651 84 -14.58138637
7.017859817 84 -14.37879145
5.398425548 84 -13.99489198
3.899275651 84 -13.44602727
2.536174186 84 -12.75020865
1.322666488 84 -11.92688364
0.2944947423 84 -11.99638582
-0.613207363 84 -9.981181129
-1.467304745 84 -9.8917651
-2.079522975 84 -8.75645957
-2.823135664 84 -8.545753625
-4.333912441 84 -10.11025237
-5.185364105 84 -9.701133908
-5.998574873 84 -9.220471761
-7.998010678 84 -10.24850356
-9.528413969 84 -10.2571598
-11.11426688 84 -10.07338432
-11.93755357 84 -9.082665621
-13.51765704 84 -8.559961918
-15.08987355 84 -7.829158086
-15.70595205 84 -6.50561835
-15.25289665 84 -4.832095189
-15.61123408 84 -3.505619843
-13.8726369 84 -1.884129919
-11.98554547 84 -0.5888120919
-11.99186862 84 0.4416866753
-10.91727488 84 1.346517427
-8.804856336 84 1.864002386
-9.569403357 84 2.902846773
-8.356554724 84 3.341854746
-6.252570108 84 3.147279308
-5.959486352 84 3.672127779
-5.62245272 84 4.169895131
-3.745681973 84 3.312078888
-3.447702724 84 3.621235415
-2.499437953 84 3.122948914
-2.777851165 84 4.157348062
-2.893102632 84 5.256420565
-5.268137082 84 11.88472682
-7.156826428 84 20.80336116
-6.560464857 84 26.19084384
-5.401176873 84 33.56824822
-2.721888853 84 36.8997469
0.515404608 83.6 41.99683748
5.096891297 83.6 51.74960579
10.06719384 83.6 54.07080181
12.00207409 83.6 43.36992296
13.58832853 83.6 36.55622146
15.81953846 83.6 33.44760385
17.62384343 83.6 30.23904996
19.00167032 83.6 26.98029883
18.67111474 83.6 22.1898507
17.67766953 83.6 17.67766953
15.30334531 83.6 12.87663086
9.811017758 83.6 6.909698297
5.183837137 83.6 3.021230302
2.711967879 83.6 1.28266528
-0.9373390119 83.6 -0.3484186802
0 83.6 0
0.9831054874 83.6 0.183039888
0.9951847267 83.6 0.09801714033
1.999849404 83.6 0.02454307657
4.986452283 83.6 -0.367822818
6.911109927 83.6 -1.112007003
7.760250026 83.6 -1.943841439
8.510465928 83.6 -2.927792629
10.05630731 83.6 -4.457654454
12.26498132 83.6 -6.750572809
12.47204418 83.6 -8.333553495
12.49179566 83.6 -9.99775181
12.31220041 83.6 -11.72218926
12.58589977 83.6 -14.2335915
10.72258748 83.6 -14.45773557
9.442614288 83.6 -15.32439348
8.093003934 83.6 -16.07803742
5.941075103 83.6 -14.85609729
4.063985482 83.6 -13.3971647
3.106670643 83.6 -14.67476056
1.713749453 83.6 -13.89471348
0.5153011212 83.6 -13.99051338
-0.5888120919 83.6 -11.98554547
-1.614968502 83.6 -11.89083163
-2.191012402 83.6 -9.7570213
-3.020059493 83.6 -9.533060404
-4.592201188 83.6 -11.08655439
-5.526464531 83.6 -10.65167544
-6.419971439 83.6 -10.13824278
-7.871643538 83.6 -10.34587976
-9.401825368 83.6 -10.37331575
-11.72246835 83.6 -10.88961596
-13.40188927 83.6 -10.45893704
-14.24981999 83.6 -9.270524803
-15.87458276 83.6 -8.485141263
-15.62493548 83.6 -6.697864681
-16.14197907 83.6 -5.332589587
-15.56703924 83.6 -3.696929732
-13.84847114 83.6 -2.054226642
-12.97553547 83.6 -0.7971695719
-11.99638582 83.6 0.2944947423
-9.9390697 83.6 1.102222073
-9.807852804 83.6 1.95090322
-7.683444155 83.6 2.228157515
-8.39693519 83.6 3.239055329
-6.29072126 83.6 3.07031367
-6.00410027 83.6 3.598719209
-4.86274319 83.6 3.514787145
-3.786044233 83.6 3.265864215
-2.793504998 83.6 2.862923301
-2.537573137 83.6 3.092041813
-2.828659054 83.6 4.122946514
-2.957389153 83.6 5.220521947
-5.413584281 83.6 11.81918378
-7.074686921 83.6 19.77242537
-6.881372809 83.6 26.10836472
-5.812704218 83.6 33.49943984
-3.174500557 83.6 36.86356665
0 83.2 42
4.289865617 83.2 49.81563061
9.060980104 83.2 52.21971505
12.23355166 83.2 46.41487061
13.81248399 83.2 38.60330667
14.99146416 83.2 32.73004739
17.25143673 83.2 30.45304469
18.10341795 83.2 26.38685769
17.76301196 83.2 21.64429269
18.15778248 83.2 18.60900146
16.65859462 83.2 14.36980254
10.53594358 83.2 7.615372147
6.86182888 83.2 4.112821954
2.696023397 83.2 1.315848716
0 83.2 0
1.920861039 83.2 0.5570393788
-0.9807852804 83.2 -0.195090322
0.99390697 83.2 0.1102222073
1.999397637 83.2 0.04908245705
3.992472452 83.2 -0.2452829452
4.94588255 83.2 -0.7336523723
7.783519618 83.2 -1.848464866
8.545753625 83.2 -2.823135664
9.191138517 83.2 -3.939920401
11.46497644 83.2 -6.128157579
11.73514588 83.2 -7.634549838
12.61354284 83.2 -9.843705449
13.18777689 83.2 -12.25081796
12.08806119 83.2 -13.33712026
12.11022083 83.2 -15.91673809
9.629957158 83.2 -15.20736417
8.750235508 83.2 -16.86515279
6.50561835 83.2 -15.70595205
4.832095189 83.2 -15.25289665
3.505619843 83.2 -15.61123408
2.018710628 83.2 -14.86353953
0.6869474406 83.2 -13.98313639
-0.4784938982 83.2 -12.991191
-1.468928102 83.2 -11.90975442
-2.278225138 83.2 -10.76149108
-3.19313145 83.2 -10.52634369
-4.084489133 83.2 -10.21356689
-5.395335956 83.2 -10.71869161
-6.819665875 83.2 -11.06761751
-8.339790263 83.2 -11.24490544
-10.59865244 83.2 -11.98618231
-11.58795333 83.2 -11.03264872
-14.05327011 83.2 -11.24747079
-14.96645302 83.2 -10.00026419
-16.64533179 83.2 -9.16149167
-16.4557756 83.2 -7.294343652
-16.07532453 83.2 -5.530274967
-15.52050005 83.2 -3.887682878
-13.82221985 83.2 -2.224014007
-12.96477594 83.2 -0.9563393268
-11.99909642 83.2 0.1472584594
-9.951847267 83.2 0.9801714033
-9.831054874 83.2 1.83039888
-6.746432461 83.2 1.866989302
-6.561373083 83.2 2.438930762
-5.423935759 83.2 2.565330561
-6.047809993 83.2 3.524768686
-4.087924066 83.2 2.879040957
-3.060669062 83.2 2.575326172
-2.828427125 83.2 2.828427125
-3.219157714 83.2 3.825836328
-4.03065734 83.2 5.723093692
-3.021230302 83.2 5.183837137
-5.130661121 83.2 10.84787152
-7.665210965 83.2 20.62145826
-7.201244452 83.2 26.02195378
-5.674236527 83.2 30.47627011
-3.528617052 83.2 35.82665016
-0.4785899931 83.2 38.99706337
3.531099053 82.8 47.86994192
8.260623453 82.8 51.33967374
11.66304864 82.8 46.56150015
13.33772198 82.8 38.76990034
14.5886873 82.8 32.91155121
15.91206448 82.8 28.91031311
18.33381769 82.8 27.43849721
19.37064413 82.8 24.20285409
17.92805416 82.8 18.83042416
15.73186428 82.8 13.91073133
11.24490544 82.8 8.339790263
8.513551931 82.8 5.245896827
2.679672904 82.8 1.348833989
0.9285060805 82.8 0.371317194
0.9569403357 82.8 0.2902846773
0 82.8 0
0 82.8 0
1.998644769 82.8 0.07361444588
2.996386369 82.8 -0.147203023
3.963610542 82.8 -0.538322834
5.85421278 82.8 -1.314607441
7.626448323 82.8 -2.416047595
10.16267486 82.8 -4.209517756
10.65167544 82.8 -5.526464531
11.82794991 82.8 -7.489966678
12.73339047 82.8 -9.688176662
12.59616913 82.8 -11.41650223
12.93141896 82.8 -13.92043116
11.07416863 82.8 -14.1902357
10.36117478 82.8 -15.92626941
8.956538 82.8 -16.75650402
7.091856721 82.8 -16.54404933
5.018907846 82.8 -15.19245089
3.696929732 82.8 -15.56703924
2.200957117 82.8 -14.83764765
0.9198110445 82.8 -14.97177169
-0.3681184278 82.8 -14.99548228
-1.543110902 82.8 -13.91469758
-2.145993542 82.8 -10.78863808
-3.342236273 82.8 -11.52516623
-4.678635475 82.8 -12.12890638
-5.702011101 82.8 -11.68276805
-6.683335675 82.8 -11.15047193
-8.201170004 82.8 -11.34640078
-9.797592644 82.8 -11.3581327
-11.4516932 82.8 -11.17401999
-12.36816725 82.8 -10.15029255
-14.01801815 82.8 -9.617440783
-16.53165283 82.8 -9.365065652
-17.27419168 82.8 -7.912161642
-16.94779317 82.8 -6.064017361
-15.47162354 82.8 -4.077850554
-14.77916464 82.8 -2.564428331
-12.95206396 82.8 -1.11536506
-12 82.8 -2.204364238e-15
-10.95943873 82.8 0.9437704358
-7.882221139 82.8 1.36769511
-7.735811768 82.8 2.038925277
-5.649264391 82.8 2.02133912
-5.455007899 82.8 2.498577361
-6.090608938 82.8 3.450287346
-4.122946514 82.8 2.828659054
-3.092041813 82.8 2.537573137
-2.862923301 82.8 2.793504998
-2.612691372 82.8 3.028835386
-3.514787145 82.8 4.86274319
-4.112821954 82.8 6.86182888
-5.263394862 82.8 10.78409359
-6.478110658 82.8 16.79387038
-7.241511924 82.8 24.9711935
-6.242890305 82.8 31.38512897
-3.967999463 82.8 35.78065092
-0.9571079124 82.8 38.98825393
2.882074606 82.4 46.91155131
7.629984672 82.4 51.43717852
11.78396352 82.4 49.61993756
13.48831484 82.4 40.82971177
14.97169752 82.4 34.92632636
16.97028253 82.4 31.74916552
19.08637459 82.4 29.33786469
17.22648454 82.4 22.07369997
18.37622694 82.4 19.78166534
16.30092476 82.4 14.77429701
11.93755357 82.4 9.082665621
10.13824278 82.4 6.419971439
4.438198102 82.4 2.302693555
1.847759065 82.4 0.7653668647
0.9533060404 82.4 0.3020059493
0 82.4 0
0 82.4 0
0.9987954562 82.4 0.04906767433
3.997289538 82.4 -0.1472288918
3.969918138 82.4 -0.4896427008
5.869904224 82.4 -1.242668257
7.655522686 82.4 -2.322277418
8.356554724 82.4 -3.341854746
11.61191592 82.4 -5.844947286
11.9189727 82.4 -7.344255557
12.04811297 82.4 -8.935489567
12.73531871 82.4 -11.26106822
12.41172981 82.4 -13.03644749
11.87233027 82.4 -14.83400734
10.55583443 82.4 -15.79792263
9.16149167 82.4 -16.64533179
7.294343652 82.4 -16.4557756
5.855585259 82.4 -17.02093186
3.887682878 82.4 -15.52050005
2.541730293 82.4 -15.79682269
1.103468454 82.4 -14.95935685
-0.1840730743 82.4 -14.99887053
-1.372239965 82.4 -13.93258617
-2.196478655 82.4 -11.79726585
-3.467265847 82.4 -12.52908886
-4.529442843 82.4 -12.18540715
-5.558216215 82.4 -11.75186081
-7.553075756 82.4 -12.95959284
-7.485506488 82.4 -10.62860257
-10.94513623 82.4 -13.00784352
-12.02081528 82.4 -12.02081528
-13.00784352 82.4 -10.94513623
-14.71652664 82.4 -10.36454745
-16.41548427 82.4 -9.567229291
-17.17579657 82.4 -8.123546775
-16.87210221 82.4 -6.271536244
-15.42041705 82.4 -4.26740412
-14.74658231 82.4 -2.745598319
-14.9277709 82.4 -1.470257105
-11.99909642 82.4 -0.1472584594
-10.97019502 82.4 0.8092101996
-8.885712763 82.4 1.42972329
-8.730281279 82.4 2.186821619
-5.673643952 82.4 1.951861753
-6.39946829 82.4 2.836689198
-5.256420565 82.4 2.893102632
-4.988817674 82.4 3.333421398
-3.122948914 82.4 2.499437953
-2.896988332 82.4 2.758162179
-2.64966311 82.4 2.996545578
-2.978496522 82.4 4.016037657
-3.147538096 82.4 5.108131159
-4.496113297 82.4 8.932243012
-6.683709491 82.4 16.71310945
-7.547401609 82.4 24.88044873
-6.213341286 82.4 29.34952112
-4.406784307 82.4 35.72926325
-1.509096141 82.4 40.97221777
2.404316042 82 48.94097735
6.863616134 82 50.53603441
11.17416325 82 49.76080863
12.68424987 82 40.03885369
14.92465386 82 36.03130177
16.11885488 82 31.06738671
17.65492146 82 27.88016765
18.77084228 82 24.67094404
19.47520969 82 21.48758264
17.58370252 82 16.33442395
13.40188927 82 10.45893704
8.382247056 82 5.453249884
6.17344885 82 3.299777158
1.838227703 82 0.7879840801
1.899056361 82 0.6273634808
1.945879904 82 0.4621162166
0.98917651 82 0.1467304745
0 82 0
2.999096456 82 -0.07362368557
1.98781394 82 -0.2204444146
4.903926402 82 -0.9754516101
7.683444155 82 -2.228157515
7.463942391 82 -2.879160292
9.885419123 82 -4.824778624
12.00820054 82 -7.197438419
12.15685797 82 -8.786967862
13.62975924 82 -11.75711117
12.57077249 82 -12.88315486
12.68786568 82 -15.46020907
11.88036803 82 -17.31637536
9.365065652 82 -16.53165283
7.912161642 82 -17.27419168
6.400907214 82 -17.88933724
4.587581873 82 -17.40557648
2.906352109 82 -16.74971992
1.372756998 82 -15.94100179
2.081899559e-15 82 -17
-1.286959685 82 -14.94468918
-2.393466443 82 -13.79388699
-3.568119234 82 -13.53767059
-4.716457947 82 -13.18161691
-6.246443401 82 -13.63751975
-7.393472883 82 -13.05130487
-9.617440783 82 -14.01801815
-10.15029255 82 -12.36816725
-12.57077249 82 -12.88315486
-14.38696808 82 -12.41028402
-15.39868677 82 -11.13015929
-17.1545722 82 -10.28205488
-16.17614038 82 -7.895092294
-16.79387038 82 -6.478110658
-16.32731883 82 -4.73483472
-15.69256449 82 -3.121445152
-14.90860455 82 -1.653333109
-11.99638582 82 -0.2944947423
-9.981181129 82 0.613207363
-7.91341208 82 1.173843796
-7.783519618 82 1.848464866
-4.747640903 82 1.568408702
-4.595569258 82 1.9699602
-3.527685057 82 1.885586947
-4.191123528 82 2.726624942
-3.941732138 82 3.076157953
-2.930617087 82 2.722403991
-3.357794774 82 3.704755627
-3.027555207 82 3.979184523
-4.814978579 82 7.603682087
-5.065925821 82 9.764035824
-6.50561835 82 15.70595205
-7.550148733 82 23.83265101
-7.011239685 82 31.22246816
-4.844905506 82 35.67249488
-2.011774647 82 40.9506137
1.803553924 81.6 48.96679684
6.36535511 81.6 51.6089358
10.56268019 81.6 49.89418591
13.06281048 81.6 43.06231511
14.85268776 81.6 37.14024322
15.28678521 81.6 30.36962624
17.83604921 81.6 28.94607657
17.87097913 81.6 24.09622594
17.88522599 81.6 20.22668265
18.10617707 81.6 17.23851362
14.05327011 81.6 11.24747079
10.80910496 81.6 7.222413029
7.008560754 81.6 3.857470177
4.571048779 81.6 2.02620657
2.836821976 81.6 0.9759308765
0 81.6 0
0.9873014182 81.6 0.1588581433
0.9972904567 81.6 0.0735645636
0 81.6 -0
2.98555418 81.6 -0.294051421
3.93242195 81.6 -0.7321595518
5.782656395 81.6 -1.600276545
8.436051107 81.6 -3.135768122
9.943882224 81.6 -4.703106028
11.23164713 81.6 -6.545998988
12.2637722 81.6 -8.637122871
13.77301078 81.6 -11.58896777
13.43502884 81.6 -13.43502884
13.5204624 81.6 -16.06851258
11.51616383 81.6 -16.35169626
10.07076767 81.6 -17.27945712
8.978656962 81.6 -18.98377516
7.316792285 81.6 -19.68411925
5.067542392 81.6 -18.31174525
