# .PCD v0.7 - Point Cloud Data file format
VERSION 0.7
FIELDS x y z
SIZE 4 4 4
TYPE F F F
COUNT 1 1 1
WIDTH 1632
HEIGHT 1
VIEWPOINT 0 0 0 1 0 0 0
POINTS 1632
DATA ascii
33.09625639 18 11.38586023
21.34068757 18 5.345563958
19.74602836 18 3.177162867
20.94309959 18 1.544855836
21.99834344 18 -0.2699738423
20.89887926 18 -2.058359947
22.61142621 18 -4.209917423
23.13062558 18 -6.401106179
23.4334753 18 -8.710467006
22.59973233 18 -10.68887734
21.5993214 18 -12.58845959
19.62203552 18 -13.81939659
20.65951617 18 -17.38345166
18.38477631 18 -18.38477631
16.09578857 18 -19.12918164
14.39520479 18 -20.43962033
13.09199798 18 -22.46329426
11.97154262 18 -25.31170021
9.407304367 18 -25.30815332
7.201244452 18 -26.02195378
4.759037087 18 -25.56074267
2.548445649 18 -25.87480289
0.3190599954 18 -25.99804225
-1.912678654 18 -25.92955187
-3.971453583 18 -24.68253545
-6.074504498 18 -24.25078133
-8.132757304 18 -23.64018313
-10.13103285 18 -22.85524389
-13.50114562 18 -24.52996264
-16.11153676 18 -24.11261876
-18.74578464 18 -23.42211686
-22.06529743 18 -23.17590665
-23.97236462 18 -21.19730488
-24.09622594 18 -17.87097913
-25.54065579 18 -15.73769048
-26.79672904 18 -13.48833989
-27.85518241 18 -11.13951582
-29.66515041 18 -8.998824995
-29.34952112 18 -6.213341286
-29.77438604 18 -3.672320256
-28.98034915 18 -1.067409465
-28.96506823 18 1.422962555
-26.75437116 18 3.63367913
-25.36825538 18 5.696632244
-23.83265101 18 7.550148733
-24.02086785 18 9.949769241
-23.07863013 18 11.97400648
-21.9661927 18 13.90993812
-19.89592262 18 15.13777604
-20.00568038 18 18.13209178
-17.01502494 18 18.31635679
-14.76555817 18 18.92031426
-13.08779972 18 20.11739293
-10.37072821 18 19.40226782
-9.061816921 18 21.13961859
-6.587316548 18 19.94009179
-5.545394599 18 23.35055885
-3.228070438 18 21.76188322
-1.410376935 18 22.9567166
0.5399070275 17.6 21.99337401
2.42488856 17.6 21.86595334
4.682167728 17.6 23.53884673
6.127433166 17.6 21.12947143
8.637480877 17.6 22.39182717
11.84263844 17.6 24.26421057
15.93718507 17.6 26.58958691
18.15973358 17.6 25.12417315
20.90153097 17.6 24.23068309
23.61911723 17.6 23.04641623
28.60138677 17.6 23.47255151
33.80816141 17.6 23.19500424
40.02400159 17.6 22.67331684
40.00339126 17.6 18.32290064
33.89558635 17.6 12.12803472
23.20743531 17.6 6.116775831
17.73499756 17.6 3.077313998
20.92256486 17.6 1.801743559
20 17.6 1.224646799e-15
19.92625224 17.6 -1.715946247
20.69083049 17.6 -3.590199664
22.24045883 17.6 -5.861910171
22.59705756 17.6 -8.085356481
22.72919958 17.6 -10.410739
21.75217478 17.6 -12.32245481
19.79014327 17.6 -13.57756346
18.55225088 17.6 -15.22543882
17.89327063 17.6 -17.45940624
17.63566676 17.6 -20.44463886
15.23074429 17.6 -21.07188715
13.88077409 17.6 -23.15867247
12.28125468 17.6 -25.16288504
9.717165986 17.6 -25.19080557
7.520031613 17.6 -25.93162402
5.072348372 17.6 -25.50041729
2.86577739 17.6 -25.84158122
0.6626131701 17.6 -26.9918681
-1.533018408 17.6 -24.95295282
-3.96172281 17.6 -26.70776577
-5.545394599 17.6 -23.35055885
-7.52836177 17.6 -22.78867633
-10.24379304 17.6 -23.89696014
-13.19910863 17.6 -24.6937954
-15.26909968 17.6 -23.47029176
-19.07217931 17.6 -24.43873926
-21.09863093 17.6 -22.71228242
-24.45138714 17.6 -22.16144551
-25.46678095 17.6 -19.37635332
-27.88016765 17.6 -17.65492146
-25.74154899 17.6 -13.35562262
-28.64026551 17.6 -11.8631864
-28.59918121 17.6 -9.06017848
-28.29536177 17.6 -6.353935965
-29.72707906 17.6 -4.037421255
-27.96627277 17.6 -1.373894881
-29.97967154 17.6 1.104216688
-27.78942697 17.6 3.427498906
-27.39288638 17.6 5.799118533
-24.88044873 17.6 7.547401609
-25.99817025 17.6 10.39688143
-25.01028043 17.6 12.58911723
-21.28387983 17.6 13.11474207
-21.68660335 17.6 16.08388122
-19.47754626 17.6 17.22281022
-17.92805416 17.6 18.83042416
-14.99662772 17.6 18.73769349
-12.77811536 17.6 19.12380108
-10.60804299 17.6 19.27354207
-8.915308908 17.6 20.11261463
-7.156826428 17.6 20.80336116
-5.588544138 17.6 22.31071882
-3.81259544 17.6 23.69523404
-1.691984963 17.6 22.9376805
0.2945169189 17.2 23.99819284
2.352411368 17.2 23.88443344
4.392957311 17.2 23.5945317
5.600967907 17.2 20.23929738
8.362048326 17.2 22.49613629
11.54398752 17.2 24.40771091
15.10615151 17.2 25.91918568
17.27424574 17.2 24.52754439
21.24644092 17.2 25.25051977
24.04163056 17.2 24.04163056
28.31118883 17.2 23.82176709
33.52097734 17.2 23.60813585
39.74275138 17.2 23.16276565
39.7755289 17.2 18.81242411
33.74420443 17.2 12.54307249
24.09440164 17.2 6.667818937
20.64521524 17.2 3.843837647
20.89887926 17.2 2.058359947
20.99841874 17.2 0.257702304
21.94039005 17.2 -1.618420399
20.73332978 17.2 -3.33602101
22.31071882 17.2 -5.588544138
22.69457581 17.2 -7.807447012
21.94103414 17.2 -9.725791536
22.77782245 17.2 -12.53677807
22.44967953 17.2 -15.00039629
19.51843071 17.2 -15.6214872
18.10617707 17.2 -17.23851362
17.22281022 17.2 -19.47754626
14.89248261 17.2 -20.08018829
13.11474207 17.2 -21.28387983
12.58911723 17.2 -25.01028043
10.39688143 17.2 -25.99817025
7.837686286 17.2 -25.83738906
5.384895781 17.2 -25.43625164
3.182677555 17.2 -25.8044679
0.9201805735 17.2 -24.98305961
-1.177624184 17.2 -23.97109095
-3.229937004 17.2 -23.78166325
-5.477531004 17.2 -24.39255325
-7.852154682 17.2 -24.78595705
-9.949769241 17.2 -24.02086785
-11.97400648 17.2 -23.07863013
-14.97993336 17.2 -23.65589983
-18.77084228 17.2 -24.67094404
-20.8183276 17.2 -22.96948489
-23.44493669 17.2 -21.77923193
-24.43873926 17.2 -19.07217931
-25.14674117 17.2 -16.35974965
-25.57571667 17.2 -13.67050537
-27.57341555 17.2 -11.8197612
-28.48584542 17.2 -9.410452212
-28.21525861 17.2 -6.70068514
-28.68611879 17.2 -4.255183759
-28.94542527 17.2 -1.778301353
-27.99156692 17.2 0.6871543986
-28.82330213 17.2 3.196444012
-27.46198785 17.2 5.462529016
-25.93162402 17.2 7.520031613
-24.25781277 17.2 9.35727095
-22.46686164 17.2 10.96540596
-22.30094386 17.2 13.36667135
-21.88234435 17.2 15.81654215
-19.68743001 17.2 16.98249392
-18.15778248 17.2 18.60900146
-15.22543882 17.2 18.55225088
-14.70902708 17.2 21.43932187
-11.82955661 17.2 20.88208779
-8.745020762 17.2 19.09252764
-8.085356481 17.2 22.59705756
-5.861910171 17.2 22.24045883
-3.590199664 17.2 20.69083049
-1.801743559 17.2 20.92256486
0 16.8 25
2.144932809 16.8 24.9078153
4.10308533 16.8 23.64666342
5.607044511 16.8 21.27348236
7.748466628 16.8 21.6555135
11.66002768 16.8 25.45670353
15.27984396 16.8 26.97269672
16.97195432 16.8 24.73767908
19.66619181 16.8 23.96332405
23.04641623 16.8 23.61911723
27.25951847 16.8 23.51422235
34.03920233 16.8 24.60351001
37.74005884 16.8 22.62052074
38.64300202 16.8 18.86049826
35.45372636 16.8 13.67601139
24.9711935 16.8 7.241511924
19.61570561 16.8 3.90180644
20.87204637 16.8 2.314666353
19.99397637 16.8 0.4908245705
19.96236226 16.8 -1.226414726
21.76188322 16.8 -3.228070438
23.35055885 16.8 -5.545394599
21.83914815 16.8 -7.214680029
22.05873244 16.8 -9.455808961
22.04803161 16.8 -11.78491842
20.95561764 16.8 -13.63312471
19.70866069 16.8 -15.38078976
17.58370252 16.8 -16.33442395
17.46053283 16.8 -19.26472926
16.34879812 16.8 -21.48759642
14.44493574 16.8 -22.81104626
12.4345452 16.8 -23.96626975
10.71513611 16.8 -25.86862691
8.154160632 16.8 -25.73926309
5.477531004 16.8 -24.39255325
3.364517713 16.8 -24.77256589
1.324827207 16.8 -26.96747732
-0.9201805735 16.8 -24.98305961
-3.06026688 16.8 -24.81198836
-4.763561652 16.8 -22.50129953
-7.837686286 16.8 -25.83738906
-9.282929849 16.8 -23.21265201
-11.68989457 16.8 -23.22383183
-15.2131008 16.8 -24.6893006
-17.87097913 16.8 -24.09622594
-20.53488911 16.8 -23.22322823
-23.17590665 16.8 -22.06529743
-24.20285409 16.8 -19.37064413
-25.77555798 16.8 -17.22267722
-27.15817292 16.8 -14.94769693
-26.51208292 16.8 -11.75199811
-27.42261244 16.8 -9.433998473
-28.13090634 16.8 -7.046425217
-27.64443971 16.8 -4.448028013
-28.92142324 16.8 -2.133372344
-28.99781635 16.8 0.3558746103
-28.86035707 16.8 2.84249707
-27.52695365 16.8 5.125116863
-26.98572984 16.8 7.467957209
-26.24549233 16.8 9.755723047
-22.59973233 16.8 10.68887734
-22.46329426 16.8 13.09199798
-22.07478996 16.8 15.54682117
-19.89434891 16.8 16.73962012
-18.38477631 16.8 18.38477631
-16.73962012 16.8 19.89434891
-14.39520479 16.8 20.43962033
-11.07784444 16.8 19.00740283
-9.833767149 16.8 20.79175374
-7.665210965 16.8 20.62145826
-6.134393422 16.8 22.16684951
-4.209917423 16.8 22.61142621
-2.156377087 16.8 21.89406399
-0.2822453806 16.8 22.99826814
1.765549526 16.4 23.93497096
3.81259544 16.4 23.69523404
5.588544138 16.4 22.31071882
7.807447012 16.4 22.69457581
10.53627416 16.4 23.76945365
14.46551316 16.4 26.28210283
17.22267722 16.4 25.77555798
19.99550362 16.4 24.98359131
24.13391907 16.4 25.3486479
27.7180466 16.4 24.50938377
32.12830126 16.4 23.82797218
38.31098369 16.4 23.60653572
38.40864495 16.4 19.33328718
36.21173714 16.4 14.48137056
28.70821007 16.4 8.708540318
19.56634741 16.4 4.142227524
19.84959069 16.4 2.448213504
23.98373723 16.4 0.8833733506
20.97470458 16.4 -1.030421161
21.79985798 16.4 -2.960775587
21.46544686 16.4 -4.820227283
21.92603893 16.4 -6.946136834
24.02086785 16.4 -9.949769241
20.41571127 16.4 -10.59239035
21.9661927 16.4 -13.90993812
20.69175952 16.4 -15.74328708
18.52377813 16.4 -16.78897387
17.69562594 16.4 -19.04901106
15.38078976 16.4 -19.70866069
13.63312471 16.4 -20.95561764
12.72771189 16.4 -23.81187414
10.63778508 16.4 -24.816074
8.783088731 16.4 -26.58678906
5.776452707 16.4 -24.32349881
3.814992336 16.4 -25.71858926
1.533018408 16.4 -24.95295282
-0.6380719416 16.4 -25.99216929
-2.86577739 16.4 -25.84158122
-4.682167728 16.4 -23.53884673
-6.962992235 16.4 -24.01076299
-8.637480877 16.4 -22.39182717
-11.84263844 16.4 -24.26421057
-14.39487684 16.4 -24.01640108
-16.98813787 16.4 -23.50325875
-19.59518529 16.4 -22.7162654
-22.90338641 16.4 -22.34803998
-25.50934496 16.4 -20.93497838
-26.38685769 16.4 -18.10341795
-26.10260973 16.4 -14.78694577
-28.18420748 16.4 -12.90931636
-30.12941009 16.4 -10.78047531
-29.00929413 16.4 -7.645969788
-29.55832927 16.4 -5.128856663
-29.88937837 16.4 -2.57391937
-30 16.4 -5.510910596e-15
-28.89306575 16.4 2.488122058
-28.57305163 16.4 4.957894774
-27.07534119 16.4 7.136238469
-25.42168976 16.4 9.096026042
-25.45670353 16.4 11.66002768
-23.49234876 16.4 13.30825119
-21.43932187 16.4 14.70902708
-21.64429269 16.4 17.76301196
-20.04046311 16.4 19.55453498
-17.63566676 16.4 20.44463886
-14.64494644 16.4 20.26142996
-12.8525686 16.4 21.44321525
-10.52678972 16.4 21.56818718
-8.27758584 16.4 21.45883437
-6.405952856 16.4 22.08990195
-4.487077406 16.4 22.55806145
-2.645332975 16.4 23.85376728
-0.5889894845 16.4 23.99277165
1.594339144 16 25.95107094
3.668261861 16 24.72941275
5.083278382 16 21.40467895
7.214680029 16 21.83914815
10.24379304 16 23.89696014
14.1419021 16 26.45763793
16.90507464 16 25.98496587
20.30264249 16 26.01543211
22.45983293 16 24.17759097
25.19233826 16 22.83300446
31.03763928 16 23.61493061
37.17355687 16 23.53989528
37.28086406 16 19.34262586
36.9551813 16 15.30733729
27.64587517 16 8.75817253
20.48974473 16 4.601126043
19.81805271 16 2.69161417
21.97350004 16 1.079488835
20.98577008 16 -0.7729516818
20.84207023 16 -2.570624179
19.56634741 16 -4.142227524
22.00962772 16 -6.676547577
21.35563985 16 -8.540295461
20.54415893 16 -10.34106058
21.28387983 16 -13.11474207
20.08018829 16 -14.89248261
18.72840986 16 -16.56039444
17.92805416 16 -18.83042416
16.24634669 16 -20.29916794
15.00039629 16 -22.44967953
13.01896185 16 -23.65389254
11.34675679 16 -25.59787316
8.783377888 16 -25.53139779
6.317484677 16 -25.22081258
4.130311727 16 -25.66983687
1.765549526 16 -23.93497096
-0.3067884571 16 -24.99811755
-2.450428508 16 -24.87961817
-4.759037087 16 -25.56074267
-6.401106179 16 -23.13062558
-8.710467006 16 -23.4334753
-11.11643243 16 -23.50372162
-14.09907474 16 -24.19123997
-16.69843755 16 -23.70995958
-19.31494629 16 -22.95501797
-22.627417 16 -22.627417
-23.72018523 16 -19.95877783
-25.34512921 16 -17.85005393
-25.05521283 16 -14.60261313
-28.02366809 16 -13.2542079
-27.18283135 16 -10.10414173
-27.94950591 16 -7.734669967
-27.52695365 16 -5.125116863
-29.8555418 16 -2.94051421
-28.99781635 16 -0.3558746103
-27.92413279 16 2.059807781
-28.63174113 16 4.606886157
-28.13090634 16 7.046425217
-25.53139779 16 8.783377888
-26.51208292 16 11.75199811
-23.65389254 16 13.01896185
-22.44967953 16 15.00039629
-21.07990517 16 16.87120618
-19.55467124 16 18.61759471
-18.54764177 16 20.97581905
-16.08388122 16 21.68660335
-12.59015238 16 20.43252463
-10.34106058 16 20.54415893
-8.911612655 16 22.28414593
-6.966832254 16 22.96656806
-5.177784405 16 24.45793427
-3.06026688 16 24.81198836
-0.8833733506 16 23.98373723
1.275759533 15.6 25.96868186
3.364517713 15.6 24.77256589
5.039328524 15.6 22.44114899
6.946136834 15.6 21.92603893
9.949769241 15.6 24.02086785
13.81616133 15.6 26.62918861
17.65492146 15.6 27.88016765
20.58737541 15.6 27.05845476
22.83300446 15.6 25.19233826
26.37555378 15.6 24.50163592
29.95716425 15.6 23.37880044
36.88188704 15.6 23.99429949
37.92261437 15.6 20.27005968
36.76455407 15.6 15.7596816
29.4353736 15.6 9.724133952
21.40467895 15.6 5.083278382
19.7835302 15.6 2.934609489
20.96048037 15.6 1.287735462
22.99307283 15.6 -0.564448256
22.85986031 15.6 -2.535110768
22.55806145 15.6 -4.487077406
22.08990195 15.6 -6.405952856
22.39182717 15.6 -8.637480877
20.66951271 15.6 -10.08817349
20.58548664 15.6 -12.33846586
21.88234435 15.6 -15.81654215
18.93022116 15.6 -16.32932107
17.45940624 15.6 -17.89327063
15.8598321 15.6 -19.32526133
14.14329527 15.6 -20.61473257
12.815353 15.6 -22.62226177
11.24359812 15.6 -24.54753554
9.432915895 15.6 -26.36323383
6.881372809 15.6 -26.10836472
4.274047219 15.6 -24.63194106
2.059135496 15.6 -23.91150269
2.939152318e-15 15.6 -24
-2.144932809 15.6 -24.9078153
-3.932123441 15.6 -22.66138577
-6.37164149 15.6 -24.17441178
-8.422246335 15.6 -23.53860163
-10.82716856 15.6 -23.63836756
-13.30825119 15.6 -23.49234876
-16.40622251 15.6 -23.91308978
-19.03179852 15.6 -23.1903136
-20.95128748 15.6 -21.47192476
-23.47347424 15.6 -20.24835813
-26.74508754 15.6 -19.3313293
-25.7318583 15.6 -15.42308233
-26.96023397 15.6 -13.15848716
-27.05679117 15.6 -10.43695606
-28.81291558 15.6 -8.355590682
-29.42355841 15.6 -5.85270966
-29.8172091 15.6 -3.306666219
-30.99066338 15.6 -0.7607780842
-29.94354339 15.6 1.839622089
-29.6752953 15.6 4.401914234
-26.26937871 15.6 6.238568924
-25.63726088 15.6 8.469406991
-24.816074 15.6 10.63778508
-22.92995287 15.6 12.25631516
-23.47029176 15.6 15.26909968
-20.49700712 15.6 15.99602136
-20.51431961 15.6 19.05682794
-18.80365074 15.6 20.74663151
-15.13777604 15.6 19.89592262
-13.90993812 15.6 21.9661927
-11.51346777 15.6 22.19099051
-8.801718944 15.6 21.24922925
-7.248142784 15.6 22.87934497
-4.820227283 15.6 21.46544686
-3.364517713 15.6 24.77256589
-1.177624184 15.6 23.97109095
0.9569877965 15.2 25.982382
3.30508823 15.2 26.79694743
4.763561652 15.2 22.50129953
6.676547577 15.2 22.00962772
8.911612655 15.2 22.28414593
13.48833989 15.2 26.79672904
16.78686985 15.2 27.24336618
20.25377635 15.2 27.30905607
23.18455222 15.2 26.21977381
24.62440082 15.2 23.44437852
31.22948914 15.2 24.99437953
34.92172372 15.2 23.33394979
38.54708414 15.2 21.21608597
37.48259998 15.2 16.61489387
29.31382709 15.2 10.08461906
23.28075008 15.2 5.831524318
20.73332978 15.2 3.33602101
22.9376805 15.2 1.691984963
21.99834344 15.2 -0.2699738423
20.89887926 15.2 -2.058359947
21.62832072 15.2 -4.026877535
21.20307345 15.2 -5.867680664
21.55879727 15.2 -8.013629646
22.59973233 15.2 -10.68887734
22.46329426 15.2 -13.09199798
20.43962033 15.2 -14.39520479
19.12918164 15.2 -16.09578857
16.97056275 15.2 -16.97056275
16.09578857 15.2 -19.12918164
15.54682117 15.2 -22.07478996
13.59553636 15.2 -23.32726712
11.97154262 15.2 -25.31170021
9.755723047 15.2 -26.24549233
6.934531694 15.2 -25.05817771
4.209917423 15.2 -22.61142621
2.450428508 15.2 -24.87961817
0.3067884571 15.2 -24.99811755
-1.83911409 15.2 -24.93226142
-4.130311727 15.2 -25.66983687
-5.831524318 15.2 -23.28075008
-8.132757304 15.2 -23.64018313
-9.725791536 15.2 -21.94103414
-12.53677807 15.2 -22.77782245
-15.00039629 15.2 -22.44967953
-19.37064413 15.2 -24.20285409
-20.68621634 15.2 -21.72741249
-23.22322823 15.2 -20.53488911
-25.70264101 15.2 -19.06237774
-25.54065579 15.2 -15.73769048
-26.79672904 15.2 -13.48833989
-28.78368849 15.2 -11.51083301
-28.70821007 15.2 -8.708540318
-28.37120375 15.2 -6.00622991
-29.77438604 15.2 -3.672320256
-28.98034915 15.2 -1.067409465
-30.96265914 15.2 1.521097904
-28.73617643 15.2 3.902840547
-26.34395751 15.2 5.915733484
-26.69256913 15.2 8.456166581
-26.79250644 15.2 11.09781954
-23.96626975 15.2 12.4345452
-23.65589983 15.2 14.97993336
-23.07927023 15.2 17.5598202
-20.74663151 15.2 18.80365074
-17.69562594 15.2 19.04901106
-15.99602136 15.2 20.49700712
-12.54247473 15.2 19.27916823
-11.31352168 15.2 21.16611034
-9.849801002 15.2 22.97784629
-7.52836177 15.2 22.78867633
-5.776452707 15.2 24.32349881
-3.668261861 15.2 24.72941275
-1.594339144 15.2 25.95107094
0.6380719416 14.8 25.99216929
2.755555182 14.8 24.84767425
4.487077406 14.8 22.55806145
6.684472545 14.8 23.05033247
8.637480877 14.8 22.39182717
12.71987092 14.8 26.06155951
15.42308233 14.8 25.7318583
19.3313293 14.8 26.74508754
21.55470382 14.8 24.98789193
26.48204054 14.8 25.83992123
30.92041813 14.8 25.37573137
33.80816141 14.8 23.19500424
37.41374062 14.8 21.19462227
37.27588731 14.8 17.07361196
32.01249822 14.8 11.45425502
23.20743531 14.8 6.116775831
19.70555285 14.8 3.419237775
19.92625224 14.8 1.715946247
20 14.8 1.224646799e-15
19.92625224 14.8 -1.715946247
22.66138577 14.8 -3.932123441
23.20743531 14.8 -6.116775831
21.6555135 14.8 -7.748466628
20.00169563 14.8 -9.161450322
20.88208779 14.8 -11.82955661
20.61473257 14.8 -14.14329527
19.32526133 14.8 -15.8598321
17.89327063 14.8 -17.45940624
16.98249392 14.8 -19.68743001
14.64494644 14.8 -20.26142996
13.36667135 14.8 -22.30094386
11.84263844 14.8 -24.26421057
9.717165986 14.8 -25.19080557
7.241511924 14.8 -24.9711935
5.072348372 14.8 -25.50041729
2.645332975 14.8 -23.85376728
0.6380719416 14.8 -25.99216929
-1.471697671 14.8 -23.95483471
-3.521531387 14.8 -23.74023624
-6.007510815 14.8 -25.29643876
-7.84204351 14.8 -23.73820451
-9.455808961 14.8 -22.05873244
-11.78491842 14.8 -22.04803161
-15.81442466 14.8 -24.30851646
-17.84171613 14.8 -22.8620464
-21.09863093 14.8 -22.71228242
-23.71043601 14.8 -21.48988656
-24.67094404 14.8 -18.77084228
-25.34560696 14.8 -16.0499286
-27.51682823 14.8 -14.27670004
-28.64026551 14.8 -11.8631864
-27.64587517 14.8 -8.75817253
-29.2710639 14.8 -6.573037205
-30.7179817 14.8 -4.172001964
-27.96627277 14.8 -1.373894881
-28.98034915 14.8 1.067409465
-29.77438604 14.8 3.672320256
-27.39288638 14.8 5.799118533
-26.7943294 14.8 8.127970963
-25.99817025 14.8 10.39688143
-24.11705613 14.8 12.1395059
-23.83794541 14.8 14.68851111
-21.68660335 14.8 16.08388122
-20.97581905 14.8 18.54764177
-17.92805416 14.8 18.83042416
-16.24634669 14.8 20.29916794
-14.44482606 14.8 21.61820992
-12.0545943 14.8 21.90175235
-10.13103285 14.8 22.85524389
-8.458067596 14.8 24.58579046
-6.074504498 14.8 24.25078133
-4.130311727 14.8 25.66983687
-1.83911409 14.8 24.93226142
0.3313315337 14.4 26.99796695
2.548445649 14.4 25.87480289
4.392957311 14.4 23.5945317
5.867680664 14.4 21.20307345
9.058885686 14.4 24.37081431
11.97154262 14.4 25.31170021
16.11322828 14.4 27.6471314
17.85005393 14.4 25.34512921
22.534104 14.4 26.7808543
25.45584412 14.4 25.45584412
29.07635609 14.4 24.46559863
34.33856215 14.4 24.18394404
38.01480567 14.4 22.15568888
36.15957172 14.4 17.10220374
32.80686542 14.4 12.19465381
24.09440164 14.4 6.667818937
19.66210975 14.4 3.660797759
19.90369453 14.4 1.960342807
19.99849404 14.4 0.2454307657
20.94309959 14.4 -1.544855836
20.73332978 14.4 -3.33602101
21.34068757 14.4 -5.345563958
22.69457581 14.4 -7.807447012
22.85524389 14.4 -10.13103285
21.90175235 14.4 -12.0545943
21.61820992 14.4 -14.44482606
20.29916794 14.4 -16.24634669
17.38192999 14.4 -16.54897307
16.56039444 14.4 -18.72840986
14.29678331 14.4 -19.27698076
13.63933175 14.4 -22.13523502
12.1395059 14.4 -24.11705613
10.39688143 14.4 -25.99817025
7.837686286 14.4 -25.83738906
5.592007157 14.4 -26.41456901
3.06026688 14.4 -24.81198836
0.8833733506 14.4 -23.98373723
-1.177624184 14.4 -23.97109095
-3.229937004 14.4 -23.78166325
-5.258429764 14.4 -23.41685112
-7.248142784 14.4 -22.87934497
-9.184402377 14.4 -22.17310878
-11.51346777 14.4 -22.19099051
-14.97993336 14.4 -23.65589983
-16.95430916 14.4 -22.28343333
-20.14676865 14.4 -22.22853376
-23.44493669 14.4 -21.77923193
-24.43873926 14.4 -19.07217931
-26.82319058 14.4 -17.45039963
-26.45763793 14.4 -14.1419021
-27.57341555 14.4 -11.8197612
-27.53631724 14.4 -9.096770472
-29.18819857 14.4 -6.931743248
-29.6752953 14.4 -4.401914234
-28.94542527 14.4 -1.778301353
-29.99096456 14.4 0.7362368557
-29.8172091 14.4 3.306666219
-28.44277313 14.4 5.657619338
-25.93162402 14.4 7.520031613
-26.12379837 14.4 10.07706102
-26.06155951 14.4 12.71987092
-24.01640108 14.4 14.39487684
-22.69280155 14.4 16.40234001
-21.95905655 14.4 18.94201245
-19.55453498 14.4 20.04046311
-17.12861867 14.4 20.87128224
-14.14329527 14.4 20.61473257
-12.815353 14.4 22.62226177
-11.24359812 14.4 24.54753554
-8.759136188 14.4 24.48014569
-6.881372809 14.4 26.10836472
-4.615970997 14.4 26.60249634
-2.144932809 14.4 24.9078153
0 14 27
2.230730121 14 25.90412792
4.274047219 14 24.63194106
5.607044511 14 21.27348236
8.085356481 14 22.59705756
11.24359812 14 24.54753554
14.78694577 14 26.10260973
18.66914976 14 27.21144699
21.56937166 14 26.28235541
23.74479248 14 24.33484806
28.01672732 14 24.16739519
34.03920233 14 24.60351001
36.88233023 14 22.106418
36.84565309 14 17.98326578
33.58774076 14 12.95622132
24.01076299 14 6.962992235
20.59649089 14 4.096896762
21.86595334 14 2.42488856
21.99337401 14 0.5399070275
19.96236226 14 -1.226414726
20.77270671 14 -3.081339964
20.431739 14 -4.852220274
22.78867633 14 -7.52836177
22.05873244 14 -9.455808961
22.04803161 14 -11.78491842
20.95561764 14 -13.63312471
19.70866069 14 -15.38078976
17.58370252 14 -16.33442395
16.78897387 14 -18.52377813
14.53226499 14 -19.10008571
13.90993812 14 -21.9661927
12.4345452 14 -23.96626975
10.33245267 14 -24.94474738
7.852154682 14 -24.78595705
5.915733484 14 -26.34395751
3.499098421 14 -25.76346852
1.177624184 14 -23.97109095
-0.9569877965 14 -25.982382
-3.06026688 14 -24.81198836
-5.384895781 14 -25.43625164
-6.966832254 14 -22.96656806
-8.540295461 14 -21.35563985
-11.68989457 14 -23.22383183
-14.16392143 14 -22.98659021
-17.27527983 14 -23.29301841
-19.87247333 14 -22.47409184
-22.45165957 14 -21.37575689
-24.98359131 14 -19.99550362
-24.94408837 14 -16.66710699
-27.15817292 14 -14.94769693
-26.51208292 14 -11.75199811
-28.36821976 14 -9.759308765
-30.07096885 14 -7.532385577
-30.60634396 14 -4.924602443
-28.92142324 14 -2.133372344
-30.99766576 14 0.3804176869
-28.86035707 14 2.84249707
-28.51005914 14 5.308156751
-26.98572984 14 7.467957209
-27.18283135 14 10.10414173
-26.2156895 14 12.39909771
-25.05521283 14 14.60261313
-22.07478996 14 15.54682117
-20.65951617 14 17.38345166
-19.79898987 14 19.79898987
-16.73962012 14 19.89434891
-15.54682117 14 22.07478996
-13.59553636 14 23.32726712
-11.11643243 14 23.50372162
-9.058885686 14 24.37081431
-7.201244452 14 26.02195378
-4.942076975 14 26.54384816
-2.352411368 14 23.88443344
-0.3313315337 14 26.99796695
2.059807781 13.6 27.92413279
3.653737297 13.6 22.70793262
5.345563958 13.6 21.34068757
7.48213672 13.6 21.74896848
10.13103285 13.6 22.85524389
13.98332939 13.6 25.40603273
17.77824746 13.6 26.60702759
20.62036311 13.6 25.76432854
23.44437852 13.6 24.62440082
26.9689102 13.6 23.84696799
33.73471632 13.6 25.01937079
36.6082733 13.6 22.55735636
34.83574775 13.6 17.53484186
32.49771282 13.6 12.99610179
25.83738906 13.6 7.837686286
20.54466479 13.6 4.3493389
21.83454976 13.6 2.693034854
19.98644769 13.6 0.7361444588
21.97350004 13.6 -1.079488835
21.79985798 13.6 -2.960775587
22.44114899 13.6 -5.039328524
21.92603893 13.6 -6.946136834
22.17310878 13.6 -9.184402377
21.30335089 13.6 -11.05292906
21.12133913 13.6 -13.3749405
19.10008571 13.6 -14.53226499
19.26472926 13.6 -17.46053283
18.37622694 13.6 -19.78166534
16.61125295 13.6 -21.28535355
15.26909968 13.6 -23.47029176
13.19910863 13.6 -24.6937954
11.03177712 13.6 -25.73518785
8.469406991 13.6 -25.63726088
6.007510815 13.6 -25.29643876
3.521531387 13.6 -23.74023624
1.594339144 13.6 -25.95107094
-0.564448256 13.6 -22.99307283
-2.645332975 13.6 -23.85376728
-4.487077406 13.6 -22.55806145
-6.962992235 13.6 -24.01076299
-8.27758584 13.6 -21.45883437
-10.52678972 13.6 -21.56818718
-12.8525686 13.6 -21.44321525
-15.81654215 13.6 -21.88234435
-19.59518529 13.6 -22.7162654
-21.47192476 13.6 -20.95128748
-23.1903136 13.6 -19.03179852
-26.38685769 13.6 -18.10341795
-26.97269672 13.6 -15.27984396
-28.18420748 13.6 -12.90931636
-28.24632196 13.6 -10.1066956
-29.00929413 13.6 -7.645969788
-28.57305163 13.6 -4.957894774
-29.88937837 13.6 -2.57391937
-31 13.6 -5.694607616e-15
-29.88937837 13.6 2.57391937
-28.57305163 13.6 4.957894774
-28.04231766 13.6 7.391104129
-27.30477789 13.6 9.769805748
-24.54753554 13.6 11.24359812
-24.36243575 13.6 13.80114938
-22.26391118 13.6 15.27475889
-21.64429269 13.6 17.76301196
-20.04046311 13.6 19.55453498
-18.2888396 13.6 21.2018477
-15.81654215 13.6 21.88234435
-13.88077409 13.6 23.15867247
-11.4040222 13.6 23.36553611
-9.35727095 13.6 24.25781277
-6.962992235 13.6 24.01076299
-5.072348372 13.6 25.50041729
-2.86577739 13.6 25.84158122
-0.6380719416 13.6 25.99216929
1.594339144 13.2 25.95107094
3.521531387 13.2 23.74023624
5.083278382 13.2 21.40467895
6.587316548 13.2 19.94009179
10.24379304 13.2 23.89696014
13.19910863 13.2 24.6937954
17.45039963 13.2 26.82319058
20.30264249 13.2 26.01543211
24.50163592 13.2 26.37555378
26.67424051 13.2 24.17612237
32.62931309 13.2 24.8259527
37.17355687 13.2 23.53989528
35.50558482 13.2 18.42154844
34.1835427 13.2 14.159287
27.64587517 13.2 8.75817253
21.46544686 13.2 4.820227283
19.81805271 13.2 2.69161417
23.97109095 13.2 1.177624184
20.98577008 13.2 -0.7729516818
20.84207023 13.2 -2.570624179
23.4796169 13.2 -4.970673029
22.96656806 13.2 -6.966832254
23.21265201 13.2 -9.282929849
22.33060753 13.2 -11.24028324
20.43252463 13.2 -12.59015238
20.08018829 13.2 -14.89248261
20.22668265 13.2 -17.88522599
17.23851362 13.2 -18.10617707
16.24634669 13.2 -20.29916794
15.00039629 13.2 -22.44967953
13.01896185 13.2 -23.65389254
11.34675679 13.2 -25.59787316
9.108688181 13.2 -26.47700511
6.317484677 13.2 -25.22081258
4.28916987 13.2 -26.65713829
1.765549526 13.2 -23.93497096
-0.2945169189 13.2 -23.99819284
-2.352411368 13.2 -23.88443344
-4.392957311 13.2 -23.5945317
-6.401106179 13.2 -23.13062558
-8.013629646 13.2 -21.55879727
-10.26132224 13.2 -21.69574303
-12.08492121 13.2 -20.73534855
-14.97101298 13.2 -21.25720514
-18.0272832 13.2 -21.42468344
-21.92031022 13.2 -21.92031022
-23.72018523 13.2 -19.95877783
-25.34512921 13.2 -17.85005393
-25.91918568 13.2 -15.10615151
-27.11967879 13.2 -12.8266528
-29.05750937 13.2 -10.80097909
-28.91328197 13.2 -8.001382724
-29.49316462 13.2 -5.491196639
-28.86035707 13.2 -2.84249707
-30.99766576 13.2 -0.3804176869
-29.9187137 13.2 2.206936908
-28.63174113 13.2 4.606886157
-28.13090634 13.2 7.046425217
-26.47700511 13.2 9.108688181
-24.6836634 13.2 10.94151548
-25.40603273 13.2 13.98332939
-23.28114914 13.2 15.55596652
-21.07990517 13.2 16.87120618
-19.55467124 13.2 18.61759471
-17.88522599 13.2 20.22668265
-15.48818192 13.2 20.88339582
-13.63933175 13.2 22.13523502
-11.68989457 13.2 23.22383183
-9.654247043 13.2 24.14115809
-7.837686286 13.2 25.83738906
-5.799118533 13.2 27.39288638
-3.182677555 13.2 25.8044679
-1.030602242 13.2 27.98102677
1.373894881 12.8 27.96627277
3.364517713 12.8 24.77256589
4.820227283 12.8 21.46544686
6.644130885 12.8 20.97273289
9.567085809 12.8 23.09698831
12.89508391 12.8 24.85390937
17.11992384 12.8 27.03531409
19.98186437 12.8 26.26261785
23.50456342 12.8 25.93328939
26.37555378 12.8 24.50163592
30.74551068 12.8 23.99403203
36.04366234 12.8 23.4489745
35.27685057 12.8 18.85586947
33.08809866 12.8 14.18371344
26.58678906 12.8 8.783088731
21.40467895 12.8 5.083278382
20.77270671 12.8 3.081339964
21.95859848 12.8 1.349056199
21.99337401 12.8 -0.5399070275
21.86595334 12.8 -2.42488856
21.57727617 12.8 -4.291987084
23.05033247 12.8 -6.684472545
21.45883437 12.8 -8.27758584
22.46686164 12.8 -10.96540596
22.30094386 12.8 -13.36667135
21.88234435 12.8 -15.81654215
20.44463886 12.8 -17.63566676
18.85615873 12.8 -19.32473228
17.12861867 12.8 -20.87128224
15.27475889 12.8 -22.26391118
13.30825119 12.8 -23.49234876
11.66002768 12.8 -25.45670353
9.096026042 12.8 -25.42168976
6.62650715 12.8 -25.14138825
4.445009108 12.8 -25.6172187
2.059135496 12.8 -23.91150269
3.061616998e-15 12.8 -25
-2.059135496 12.8 -23.91150269
-3.932123441 12.8 -22.66138577
-6.116775831 12.8 -23.20743531
-7.748466628 12.8 -21.6555135
-9.577879882 12.8 -20.91086361
-12.32245481 12.8 -21.75217478
-15.8404907 12.8 -23.08850048
-17.76301196 12.8 -21.64429269
-22.34803998 12.8 -22.90338641
-23.47347424 12.8 -20.24835813
-25.93463034 12.8 -18.74553144
-27.44731552 12.8 -16.45128781
-26.96023397 12.8 -13.15848716
-27.05679117 12.8 -10.43695606
-29.7733461 12.8 -8.634110371
-29.42355841 12.8 -5.85270966
-28.82330213 12.8 -3.196444012
-29.99096456 12.8 -0.7362368557
-28.94542527 12.8 1.778301353
-30.66447181 12.8 4.548644708
-28.21525861 12.8 6.70068514
-26.58678906 12.8 8.783088731
-26.6543017 12.8 11.42576916
-24.6937954 12.8 13.19910863
-22.63206705 12.8 14.72377469
-23.65039283 12.8 18.45694772
-20.51431961 12.8 19.05682794
-16.78897387 12.8 18.52377813
-15.74328708 12.8 20.69175952
-14.44493574 12.8 22.81104626
-11.51346777 12.8 22.19099051
-10.33245267 12.8 24.94474738
-7.852154682 12.8 24.78595705
-5.915733484 12.8 26.34395751
-3.63367913 12.8 26.75437116
-1.275759533 12.8 25.96868186
0.9937950194 12.4 26.98170438
3.182677555 12.4 25.8044679
4.3493389 12.4 20.54466479
6.095978222 12.4 20.09574705
8.540295461 12.4 21.35563985
13.03872856 12.4 25.90350473
16.26228016 12.4 26.39201099
20.25377635 12.4 27.30905607
22.52213644 12.4 25.47063741
27.52138915 12.4 26.2025407
29.66801469 12.4 23.74466055
34.92172372 12.4 23.33394979
35.91887386 12.4 19.76953466
33.82576096 12.4 14.99392862
28.36821976 12.4 9.759308765
20.37065632 12.4 5.102583778
22.70793262 12.4 3.653737297
20.94309959 12.4 1.544855836
20.99841874 12.4 -0.257702304
20.89887926 12.4 -2.058359947
20.64521524 12.4 -3.843837647
22.16684951 12.4 -6.134393422
20.62145826 12.4 -7.665210965
21.69574303 12.4 -10.26132224
21.5993214 12.4 -12.58845959
21.25720514 12.4 -14.97101298
19.89434891 12.4 -16.73962012
17.67766953 12.4 -17.67766953
16.09578857 12.4 -19.12918164
15.54682117 12.4 -22.07478996
13.59553636 12.4 -23.32726712
11.11643243 12.4 -23.50372162
9.407304367 12.4 -25.30815332
6.934531694 12.4 -25.05817771
4.759037087 12.4 -25.56074267
2.352411368 12.4 -23.88443344
0.2822453806 12.4 -22.99826814
-1.691984963 12.4 -22.9376805
-3.81259544 12.4 -23.69523404
-6.074504498 12.4 -24.25078133
-7.48213672 12.4 -21.74896848
-9.320550222 12.4 -21.02682438
-12.53677807 12.4 -22.77782245
-14.44482606 12.4 -21.61820992
-18.12092516 12.4 -22.64137963
-19.9966758 12.4 -21.00316541
-22.47409184 12.4 -19.87247333
-24.89943348 12.4 -18.46667844
-24.6893006 12.4 -15.2131008
-28.58317764 12.4 -14.38756255
-27.85518241 12.4 -11.13951582
-27.75126974 12.4 -8.41825564
-29.34952112 12.4 -6.213341286
-29.77438604 12.4 -3.672320256
-29.97967154 12.4 -1.104216688
-30.96265914 12.4 1.521097904
-27.74527379 12.4 3.768259838
-27.31965964 12.4 6.134834724
-26.69256913 12.4 8.456166581
-25.86862691 12.4 10.71513611
-24.85390937 12.4 12.89508391
-23.65589983 12.4 14.97993336
-22.28343333 12.4 16.95430916
-20.74663151 12.4 18.80365074
-17.69562594 12.4 19.04901106
-16.61125295 12.4 21.28535355
-14.72377469 12.4 22.63206705
-13.19910863 12.4 24.6937954
-10.63778508 12.4 24.816074
-8.783088731 12.4 26.58678906
-6.469627032 12.4 27.24231866
-3.814992336 12.4 25.71858926
-1.594339144 12.4 25.95107094
0.6871543986 12 27.99156692
2.755555182 12 24.84767425
4.291987084 12 21.57727617
5.570393788 12 19.20861039
8.637480877 12 22.39182717
11.84263844 12 24.26421057
15.42308233 12 25.7318583
19.3313293 12 26.74508754
21.55470382 12 24.98789193
25.05057888 12 24.44316873
30.14740768 12 24.74133808
32.98357211 12 22.62927243
34.80347964 12 19.71592769
32.73004739 12 14.99146416
30.12941009 12 10.78047531
23.20743531 12 6.116775831
21.67610813 12 3.761161553
22.91519008 12 1.973338184
21 12 1.285879139e-15
21.91887747 12 -1.887540872
20.69083049 12 -3.590199664
23.20743531 12 -6.116775831
22.59705756 12 -8.085356481
21.82003159 12 -9.994309442
21.75217478 12 -12.32245481
18.96555396 12 -13.01183165
20.87128224 12 -17.12861867
17.89327063 12 -17.45940624
16.32932107 12 -18.93022116
15.23074429 12 -21.07188715
12.8525686 12 -21.44321525
12.28125468 12 -25.16288504
9.35727095 12 -24.25781277
7.798551303 12 -26.89205454
4.682167728 12 -23.53884673
2.755555182 12 -24.84767425
0.5889894845 12 -23.99277165
-1.349056199 12 -21.95859848
-3.521531387 12 -23.74023624
-5.545394599 12 -23.35055885
-7.52836177 12 -22.78867633
-8.667824881 12 -20.22050474
-12.25631516 12 -22.92995287
-14.1784497 12 -21.79384234
-16.61125295 12 -21.28535355
-18.37622694 12 -19.78166534
-21.48758264 12 -19.47520969
-23.07927023 12 -17.5598202
-26.19046052 12 -16.58492622
-28.40446785 12 -14.73723875
-29.56414504 12 -12.24586984
-29.55248725 12 -9.362184429
-31.22246816 12 -7.011239685
-29.72707906 12 -4.037421255
-31.9614546 12 -1.570165578
-29.97967154 12 1.104216688
-30.76686557 12 3.794730931
-29.34952112 12 6.213341286
-28.70821007 12 8.708540318
-25.06966417 12 10.02556424
-25.01028043 12 12.58911723
-23.83794541 12 14.68851111
-21.68660335 12 16.08388122
-20.97581905 12 18.54764177
-19.9966758 12 21.00316541
-16.87120618 12 21.07990517
-14.44482606 12 21.61820992
-13.01896185 12 23.65389254
-11.34675679 12 25.59787316
-9.108688181 12 26.47700511
-6.317484677 12 25.22081258
-4.130311727 12 25.66983687
-1.83911409 12 24.93226142
0.343603072 11.6 27.99789165
2.548445649 11.6 25.87480289
4.392957311 11.6 23.5945317
5.334255149 11.6 19.27552132
7.665210965 11.6 20.62145826
11.97154262 11.6 25.31170021
15.10615151 11.6 25.91918568
18.42586213 11.6 26.16271402
20.60260937 11.6 24.4853525
25.45584412 11.6 25.45584412
29.07635609 11.6 24.46559863
33.52097734 11.6 23.60813585
34.55891424 11.6 20.14153535
34.35159314 11.6 16.24709355
29.99484838 11.6 11.14939777
23.13062558 11.6 6.401106179
20.64521524 11.6 3.843837647
21.89406399 11.6 2.156377087
20.99841874 11.6 0.257702304
21.94039005 11.6 -1.618420399
21.7206312 11.6 -3.494879153
22.31071882 11.6 -5.588544138
21.74896848 11.6 -7.48213672
21.94103414 11.6 -9.725791536
21.90175235 11.6 -12.0545943
20.78674031 11.6 -13.88925583
21.07990517 11.6 -16.87120618
18.83042416 11.6 -17.92805416
16.56039444 11.6 -18.72840986
15.48818192 11.6 -20.88339582
14.68851111 11.6 -23.83794541
11.24028324 11.6 -22.33060753
10.02556424 11.6 -25.06966417
7.837686286 11.6 -25.83738906
5.384895781 11.6 -25.43625164
2.937856205 11.6 -23.81950883
0.8465661277 11.6 -22.98441485
-1.12855651 11.6 -22.97229549
-3.229937004 11.6 -23.78166325
-5.039328524 11.6 -22.44114899
-6.946136834 11.6 -21.92603893
-9.567085809 11.6 -23.09698831
-11.05292906 11.6 -21.30335089
-13.3749405 11.6 -21.12133913
-16.95430916 11.6 -22.28343333
-19.47520969 11.6 -21.48758264
-21.97962815 11.6 -20.41802993
-24.43873926 11.6 -19.07217931
-25.14674117 11.6 -16.35974965
-27.33955919 11.6 -14.61329884
-29.41164325 11.6 -12.60774528
-30.38490178 11.6 -10.03781569
-29.18819857 11.6 -6.931743248
-29.6752953 11.6 -4.401914234
-30.9416615 11.6 -1.900942825
-30.99066338 11.6 0.7607780842
-29.8172091 11.6 3.306666219
-28.44277313 11.6 5.657619338
-26.89205454 11.6 7.798551303
-26.12379837 11.6 10.07706102
-25.16288504 11.6 12.28125468
-24.01640108 11.6 14.39487684
-22.69280155 11.6 16.40234001
-20.44463886 11.6 17.63566676
-18.15778248 11.6 18.60900146
-17.12861867 11.6 20.87128224
-15.27475889 11.6 22.26391118
-13.30825119 11.6 23.49234876
-11.24359812 11.6 24.54753554
-9.096026042 11.6 25.42168976
-7.136238469 11.6 27.07534119
-4.445009108 11.6 25.6172187
-2.144932809 11.6 24.9078153
0 11.2 27
2.316527433 11.2 26.90044053
3.761161553 11.2 21.67610813
5.097313192 11.2 19.33952942
7.411576775 11.2 20.71396943
11.24359812 11.2 24.54753554
14.29404757 11.2 25.23252274
18.10341795 11.2 26.38685769
20.30058509 11.2 24.73633451
24.44316873 11.2 25.05057888
28.01672732 11.2 24.16739519
32.41828793 11.2 23.4319143
34.3091444 11.2 20.56410977
34.1496297 11.2 16.66741706
29.85576956 11.2 11.51664117
23.05033247 11.2 6.684472545
20.59649089 11.2 4.096896762
21.86595334 11.2 2.42488856
21.99337401 11.2 0.5399070275
21.95859848 11.2 -1.349056199
20.77270671 11.2 -3.081339964
21.40467895 11.2 -5.083278382
24.6877327 11.2 -8.15572525
22.97784629 11.2 -9.849801002
21.16611034 11.2 -11.31352168
20.95561764 11.2 -13.63312471
21.28535355 11.2 -16.61125295
19.04901106 11.2 -17.69562594
17.46053283 11.2 -19.26472926
15.13777604 11.2 -19.89592262
14.97993336 11.2 -23.65589983
12.4345452 11.2 -23.96626975
10.33245267 11.2 -24.94474738
7.852154682 11.2 -24.78595705
5.477531004 11.2 -24.39255325
3.229937004 11.2 -23.78166325
1.177624184 11.2 -23.97109095
-0.9569877965 11.2 -25.982382
-2.937856205 11.2 -23.81950883
-4.556450276 11.2 -21.52298216
-6.676547577 11.2 -22.00962772
-8.168978267 11.2 -20.42713377
-10.34106058 11.2 -20.54415893
-13.11474207 11.2 -21.28387983
-15.48818192 11.2 -20.88339582
-19.21005755 11.2 -21.72495544
-21.00316541 11.2 -19.9966758
-24.20285409 11.2 -19.37064413
-25.77555798 11.2 -17.22267722
-27.15817292 11.2 -14.94769693
-28.34050243 11.2 -12.56248073
-28.36821976 11.2 -9.759308765
-31.0410001 11.2 -7.775365757
-30.60634396 11.2 -4.924602443
-30.91600416 11.2 -2.280501472
-28.99781635 11.2 0.3558746103
-30.85072653 11.2 3.03853135
-30.47627011 11.2 5.674236527
-28.91328197 11.2 8.001382724
-28.12017036 11.2 10.45256041
-26.2156895 11.2 12.39909771
-24.19123997 11.2 14.09907474
-22.89237477 11.2 16.12262936
-21.42468344 11.2 18.0272832
-18.38477631 11.2 18.38477631
-16.09578857 11.2 19.12918164
-14.97101298 11.2 21.25720514
-13.59553636 11.2 23.32726712
-11.97154262 11.2 25.31170021
-9.755723047 11.2 26.24549233
-7.467957209 11.2 26.98572984
-4.575997199 11.2 24.57763719
-2.548445649 11.2 25.87480289
-0.343603072 11.2 27.99789165
1.912678654 10.8 25.92955187
3.81259544 10.8 23.69523404
4.859603598 10.8 19.40062506
6.831516135 10.8 19.85775383
9.725791536 10.8 21.94103414
13.50114562 10.8 24.52996264
16.66710699 10.8 24.94408837
20.62036311 10.8 25.76432854
24.13391907 10.8 25.3486479
26.9689102 10.8 23.84696799
31.32509373 10.8 23.23227288
33.20285253 10.8 20.45899762
33.94252345 10.8 17.08523053
31.56920674 10.8 12.62478459
23.92350839 10.8 7.257116931
21.52298216 10.8 4.556450276
21.83454976 10.8 2.693034854
20.98577008 10.8 0.7729516818
21.97350004 10.8 -1.079488835
21.79985798 10.8 -2.960775587
22.44114899 10.8 -5.039328524
22.87934497 10.8 -7.248142784
23.09698831 10.8 -9.567085809
22.19099051 10.8 -11.51346777
21.9661927 10.8 -13.90993812
22.28343333 10.8 -16.95430916
19.26472926 10.8 -17.46053283
17.69562594 10.8 -19.04901106
15.38078976 10.8 -19.70866069
13.63312471 10.8 -20.95561764
12.25631516 10.8 -22.92995287
10.24379304 10.8 -23.89696014
7.84204351 10.8 -23.73820451
5.545394599 10.8 -23.35055885
3.374800912 10.8 -22.75105973
1.471697671 10.8 -23.95483471
-0.5889894845 10.8 -23.99277165
-2.535110768 10.8 -22.85986031
-4.487077406 10.8 -22.55806145
-6.405952856 10.8 -22.08990195
-7.917690804 10.8 -20.52584157
-10.08817349 10.8 -20.66951271
-12.33846586 10.8 -20.58548664
-15.23074429 10.8 -21.07188715
-17.63566676 10.8 -20.44463886
-20.75619393 10.8 -20.25291123
-23.1903136 10.8 -19.03179852
-24.73767908 10.8 -16.97195432
-27.84278372 10.8 -15.77274215
-27.27503949 10.8 -12.4928868
-30.12941009 10.8 -10.78047531
-29.9762706 10.8 -7.900835448
-29.55832927 10.8 -5.128856663
-30.88569098 10.8 -2.659716683
-31 10.8 -5.694607616e-15
-29.88937837 10.8 2.57391937
-30.54360691 10.8 5.299818552
-29.00929413 10.8 7.645969788
-27.30477789 10.8 9.769805748
-26.36587151 10.8 12.07645724
-25.23252274 10.8 14.29404757
-23.08850048 10.8 15.8404907
-20.87128224 10.8 17.12861867
-20.04046311 10.8 19.55453498
-18.2888396 10.8 21.2018477
-15.81654215 10.8 21.88234435
-13.36667135 10.8 22.30094386
-12.71987092 10.8 26.06155951
-10.43695606 10.8 27.05679117
-8.077070992 10.8 27.85248506
-5.267438694 10.8 26.48120257
-2.975999597 10.8 26.83548819
-0.7116956272 10.8 28.99126574
1.65565988 10.4 26.94918905
3.521531387 10.4 23.74023624
4.852220274 10.4 20.431739
6.587316548 10.4 19.94009179
9.061816921 10.4 21.13961859
12.72771189 10.4 23.81187414
16.90507464 10.4 25.98496587
20.30264249 10.4 26.01543211
23.82103492 10.4 25.64289951
25.93328939 10.4 23.50456342
31.03763928 10.4 23.61493061
33.79414261 10.4 21.3999048
33.73030558 10.4 17.50047102
30.48802457 10.4 12.62855327
22.87934497 10.4 7.248142784
22.44114899 10.4 5.039328524
21.79985798 10.4 2.960775587
21.97350004 10.4 1.079488835
19.98644769 10.4 -0.7361444588
20.84207023 10.4 -2.570624179
22.50129953 10.4 -4.763561652
22.96656806 10.4 -6.966832254
22.28414593 10.4 -8.911612655
22.33060753 10.4 -11.24028324
20.43252463 10.4 -12.59015238
20.08018829 10.4 -14.89248261
19.47754626 10.4 -17.22281022
16.54897307 10.4 -17.38192999
16.87120618 10.4 -21.07990517
15.00039629 10.4 -22.44967953
13.50114562 10.4 -24.52996264
11.34675679 10.4 -25.59787316
8.458067596 10.4 -24.58579046
6.074504498 10.4 -24.25078133
3.971453583 10.4 -24.68253545
1.691984963 10.4 -22.9376805
-0.3067884571 10.4 -24.99811755
-2.254394228 10.4 -22.88924871
-4.392957311 10.4 -23.5945317
-6.134393422 10.4 -22.16684951
-8.362048326 10.4 -22.49613629
-9.833767149 10.4 -20.79175374
-12.08492121 10.4 -20.73534855
-14.97101298 10.4 -21.25720514
-17.38345166 10.4 -20.65951617
-19.09188309 10.4 -19.09188309
-23.72018523 10.4 -19.95877783
-24.52754439 10.4 -17.27424574
-27.6471314 10.4 -16.11322828
-28.92765738 10.4 -13.68176299
-29.05750937 10.4 -10.80097909
-30.84083411 10.4 -8.534808239
-29.49316462 10.4 -5.491196639
-29.8555418 10.4 -2.94051421
-29.99774106 10.4 -0.3681461486
-29.9187137 10.4 2.206936908
-29.61904254 10.4 4.7657443
-29.1009376 10.4 7.289405397
-28.36821976 10.4 9.759308765
-25.59787316 10.4 11.34675679
-23.65389254 10.4 13.01896185
-23.28114914 10.4 15.55596652
-22.64137963 10.4 18.12092516
-19.55467124 10.4 18.61759471
-17.22281022 10.4 19.47754626
-16.67958053 10.4 22.48981088
-14.16392143 10.4 22.98659021
-12.58911723 10.4 25.01028043
-10.39688143 10.4 25.99817025
-7.547401609 10.4 24.88044873
-5.592007157 10.4 26.41456901
-3.06026688 10.4 24.81198836
-1.030602242 10.4 27.98102677
1.324827207 10 26.96747732
3.364517713 10 24.77256589
4.382024803 10 19.5140426
6.040118986 10 19.06612081
8.801718944 10 21.24922925
13.35562262 10 25.74154899
16.0499286 10 25.34560696
19.37635332 10 25.46678095
22.16144551 10 24.45138714
26.37555378 10 24.50163592
30.74551068 10 23.99403203
32.69076352 10 21.26767455
32.63108678 10 17.44167926
32.16898481 10 13.7897214
24.6877327 10 8.15572525
21.40467895 10 5.083278382
21.76188322 10 3.228070438
21.95859848 10 1.349056199
20.99367519 10 -0.515365799
21.86595334 10 -2.42488856
21.57727617 10 -4.291987084
22.08990195 10 -6.405952856
20.52584157 10 -7.917690804
21.56818718 10 -10.52678972
22.30094386 10 -13.36667135
21.07188715 10 -15.23074429
18.93022116 10 -16.32932107
18.15778248 10 -18.60900146
17.12861867 10 -20.87128224
15.27475889 10 -22.26391118
13.80114938 10 -24.36243575
11.24359812 10 -24.54753554
8.422246335 10 -23.53860163
6.37164149 10 -24.17441178
4.10308533 10 -23.64666342
2.144932809 10 -24.9078153
3.061616998e-15 10 -25
-1.973338184 10 -22.91519008
-3.761161553 10 -21.67610813
-5.607044511 10 -21.27348236
-7.411576775 10 -20.71396943
-9.161450322 10 -20.00169563
-11.82955661 10 -20.88208779
-14.14329527 10 -20.61473257
-17.12861867 10 -20.87128224
-19.55453498 10 -20.04046311
-23.47347424 10 -20.24835813
-25.93463034 10 -18.74553144
-26.58958691 10 -15.93718507
-26.96023397 10 -13.15848716
-28.92277676 10 -11.15674613
-30.73377662 10 -8.91263006
-31.38512897 10 -6.242890305
-30.81111607 10 -3.416888426
-29.99096456 10 -0.7362368557
-28.94542527 10 1.778301353
-30.66447181 10 4.548644708
-28.21525861 10 6.70068514
-25.63726088 10 8.469406991
-25.73518785 10 11.03177712
-23.81187414 10 12.72771189
-22.63206705 10 14.72377469
-22.07369997 10 17.22648454
-20.51431961 10 19.05682794
-17.46053283 10 19.26472926
-15.74328708 10 20.69175952
-13.90993812 10 21.9661927
-12.89508391 10 24.85390937
-11.09781954 10 26.79250644
-8.456166581 10 26.69256913
-5.477531004 10 24.39255325
-3.364517713 10 24.77256589
-1.275759533 10 25.96868186
1.030602242 9.6 27.98102677
3.182677555 9.6 25.8044679
4.3493389 9.6 20.54466479
6.095978222 9.6 20.09574705
8.911612655 9.6 22.28414593
12.1395059 9.6 24.11705613
15.73769048 9.6 25.54065579
18.46667844 9.6 24.89943348
21.19730488 9.6 23.97236462
24.62440082 9.6 23.44437852
30.44875191 9.6 24.36952004
31.59584527 9.6 21.11166885
32.41459349 9.6 17.84079957
31.99734145 9.6 14.18344599
24.58579046 9.6 8.458067596
21.34068757 9.6 5.345563958
20.73332978 9.6 3.33602101
20.94309959 9.6 1.544855836
21.99834344 9.6 -0.2699738423
20.89887926 9.6 -2.058359947
21.62832072 9.6 -4.026877535
23.13062558 9.6 -6.401106179
22.49613629 9.6 -8.362048326
22.59973233 9.6 -10.68887734
22.46329426 9.6 -13.09199798
21.25720514 9.6 -14.97101298
19.12918164 9.6 -16.09578857
18.38477631 9.6 -18.38477631
17.38345166 9.6 -20.65951617
15.54682117 9.6 -22.07478996
13.09199798 9.6 -22.46329426
11.11643243 9.6 -23.50372162
8.710467006 9.6 -23.4334753
6.934531694 9.6 -25.05817771
4.026877535 9.6 -21.62832072
2.352411368 9.6 -23.88443344
0.3067884571 9.6 -24.99811755
-1.691984963 9.6 -22.9376805
-3.653737297 9.6 -22.70793262
-5.588544138 9.6 -22.31071882
-6.831516135 9.6 -19.85775383
-9.725791536 9.6 -21.94103414
-12.0545943 9.6 -21.90175235
-14.44482606 9.6 -21.61820992
-16.24634669 9.6 -20.29916794
-19.30713525 9.6 -20.27891832
-22.47409184 9.6 -19.87247333
-24.89943348 9.6 -18.46667844
-27.24336618 9.6 -16.78686985
-27.68995334 9.6 -13.93795122
-27.85518241 9.6 -11.13951582
-30.62209074 9.6 -9.289109672
-29.34952112 9.6 -6.213341286
-30.76686557 9.6 -3.794730931
-30.97899392 9.6 -1.141023911
-29.96386369 9.6 1.47203023
-29.72707906 9.6 4.037421255
-27.31965964 9.6 6.134834724
-27.64587517 9.6 8.75817253
-25.86862691 9.6 10.71513611
-24.85390937 9.6 12.89508391
-23.65589983 9.6 14.97993336
-21.48759642 9.6 16.34879812
-20.74663151 9.6 18.80365074
-18.37622694 9.6 19.78166534
-15.99602136 9.6 20.49700712
-14.1784497 9.6 21.79384234
-12.72771189 9.6 23.81187414
-11.03177712 9.6 25.73518785
-8.469406991 9.6 25.63726088
-6.469627032 9.6 27.24231866
-3.668261861 9.6 24.72941275
-1.594339144 9.6 25.95107094
0.6871543986 9.2 27.99156692
2.86577739 9.2 25.84158122
4.096896762 9.2 20.59649089
5.848913477 9.2 20.16904091
8.27758584 9.2 21.45883437
11.84263844 9.2 24.26421057
15.42308233 9.2 25.7318583
18.74553144 9.2 25.93463034
20.90153097 9.2 24.23068309
24.33484806 9.2 23.74479248
29.37439723 9.2 24.1069448
32.15898281 9.2 22.06354062
32.19321867 9.2 18.23723311
30.91171143 9.2 14.15860504
25.42168976 9.2 9.096026042
22.24045883 9.2 5.861910171
20.69083049 9.2 3.590199664
22.91519008 9.2 1.973338184
21 9.2 1.285879139e-15
20.92256486 9.2 -1.801743559
20.69083049 9.2 -3.590199664
23.20743531 9.2 -6.116775831
21.6555135 9.2 -7.748466628
23.63836756 9.2 -10.82716856
22.62226177 9.2 -12.815353
19.79014327 9.2 -13.57756346
20.09827179 9.2 -16.49422539
19.32473228 9.2 -18.85615873
16.98249392 9.2 -19.68743001
15.23074429 9.2 -21.07188715
13.36667135 9.2 -22.30094386
11.4040222 9.2 -23.36553611
8.997375913 9.2 -23.32481997
6.962992235 9.2 -24.01076299
5.072348372 9.2 -25.50041729
2.535110768 9.2 -22.85986031
0.564448256 9.2 -22.99307283
