# .PCD v0.7 - Point Cloud Data file format
VERSION 0.7
FIELDS x y z
SIZE 4 4 4
TYPE F F F
COUNT 1 1 1
WIDTH 1624
HEIGHT 1
VIEWPOINT 0 0 0 1 0 0 0
POINTS 1624
DATA ascii
14.95935685 39.2 -1.103468454
16.78412411 39.2 -2.700588437
17.46056256 39.2 -4.373643238
17.96653918 39.2 -6.180895551
19.19840487 39.2 -8.510067594
20.14961217 39.2 -11.09022676
20.78674031 39.2 -13.88925583
19.51843071 39.2 -15.6214872
20.27891832 39.2 -19.30713525
18.54764177 39.2 -20.97581905
17.27527983 39.2 -23.29301841
14.16392143 39.2 -22.98659021
12.58911723 39.2 -25.01028043
10.39688143 39.2 -25.99817025
8.127970963 39.2 -26.7943294
5.384895781 39.2 -25.43625164
3.30508823 39.2 -26.79694743
0.9201805735 39.2 -24.98305961
-1.275759533 39.2 -25.96868186
-3.499098421 39.2 -25.76346852
-5.477531004 39.2 -24.39255325
-7.852154682 39.2 -24.78595705
-9.949769241 39.2 -24.02086785
-12.4345452 39.2 -23.96626975
-14.44493574 39.2 -22.81104626
-15.74328708 39.2 -20.69175952
-18.13209178 39.2 -20.00568038
-19.78166534 39.2 -18.37622694
-20.49700712 39.2 -15.99602136
-21.79384234 39.2 -14.1784497
-23.81187414 39.2 -12.72771189
-22.97784629 39.2 -9.849801002
-21.83914815 39.2 -7.214680029
-21.40467895 39.2 -5.083278382
-21.76188322 39.2 -3.228070438
-19.96236226 39.2 -1.226414726
-18.99427756 39.2 0.4662833419
-17.89032546 39.2 1.983999731
-16.67334977 39.2 3.316535474
-15.36688831 39.2 4.45631503
-14.92788478 39.2 5.758320585
-12.58144252 39.2 6.14062734
-12.00820054 39.2 7.197438419
-10.53594358 39.2 7.615372147
-9.843715005 39.2 8.491246958
-8.380514993 39.2 8.588769903
-7.61271941 39.2 9.27612544
-5.657318108 39.2 8.245893028
-4.43608373 39.2 7.83078292
-4.164295601 39.2 9.091679831
-3.368898534 39.2 9.415440652
-2.548656596 39.2 9.66976471
-1.538656999 39.2 8.867498782
-0.6863784988 39.2 7.970500897
0 38.8 8
0.6863784988 38.8 7.970500897
1.36769511 38.8 7.882221139
2.548656596 38.8 9.66976471
3.032008681 38.8 8.473896587
3.747866041 38.8 8.182511848
4.928981922 38.8 8.700869911
5.657318108 38.8 8.245893028
6.978326126 38.8 8.503114987
8.380514993 38.8 8.588769903
9.086506158 38.8 7.838074115
9.725486379 38.8 7.029574289
12.00820054 38.8 7.197438419
13.48011699 38.8 6.579243578
13.99489198 38.8 5.398425548
13.44602727 38.8 3.899275651
14.71177921 38.8 2.92635483
14.90860455 38.8 1.653333109
14.99548228 38.8 0.3681184278
15.96988981 38.8 -0.9811317808
15.82682416 38.8 -2.347687591
17.51291914 38.8 -4.159045949
17.09150725 38.8 -5.646271327
18.38227703 38.8 -7.879840801
21.16611034 38.8 -11.31352168
20.11739293 38.8 -13.08779972
20.49700712 38.8 -15.99602136
19.78166534 38.8 -18.37622694
19.47520969 38.8 -21.48758264
17.5598202 38.8 -23.07927023
15.51493098 38.8 -24.50075339
12.89508391 38.8 -24.85390937
10.33245267 38.8 -24.94474738
8.456166581 38.8 -26.69256913
5.915733484 38.8 -26.34395751
3.499098421 38.8 -25.76346852
1.226691858 38.8 -24.96988641
-0.9201805735 38.8 -24.98305961
-3.182677555 38.8 -25.8044679
-5.384895781 38.8 -25.43625164
-7.547401609 38.8 -24.88044873
-10.39688143 38.8 -25.99817025
-12.1395059 38.8 -24.11705613
-14.16392143 38.8 -22.98659021
-16.08388122 38.8 -21.68660335
-17.88522599 38.8 -20.22668265
-20.27891832 38.8 -19.30713525
-21.8606424 38.8 -17.49606567
-22.44967953 38.8 -15.00039629
-23.65389254 38.8 -13.01896185
-23.76945365 38.8 -10.53627416
-22.69457581 38.8 -7.807447012
-22.31071882 38.8 -5.588544138
-21.7206312 38.8 -3.494879153
-20.94309959 38.8 -1.544855836
-19.99849404 38.8 0.2454307657
-18.90850981 38.8 1.862325666
-16.71279329 38.8 3.111678095
-16.38419312 38.8 4.534116877
-14.99742419 38.8 5.574698884
-14.46382869 38.8 6.840881495
-12.09561999 38.8 7.049537372
-11.44618738 38.8 8.06131468
-9.947174453 38.8 8.369810058
-7.778174593 38.8 7.778174593
-7.725978515 38.8 9.182007187
-5.758081914 38.8 8.175848132
-5.035383837 38.8 8.639728561
-4.275550934 38.8 9.039892931
-3.484186802 38.8 9.373390119
-2.400414817 38.8 8.673984592
-1.464319104 38.8 7.864843899
-0.882154263 38.8 8.95666254
-0.09817230629 38.8 7.999397615
0.5885165088 38.4 7.978323653
1.42972329 38.4 8.885712763
2.186821619 38.4 8.730281279
3.253102922 38.4 9.456073254
3.647171826 38.4 8.227887801
4.821837721 38.4 8.760700942
5.55570233 38.4 8.314696123
5.623735393 38.4 7.026635057
7.584945992 38.4 7.966717912
8.24050034 38.4 7.286573553
10.44169791 38.4 7.744090958
11.06761751 38.4 6.819665875
13.39836452 38.4 6.744169945
15.78460337 38.4 6.312392297
13.3971647 38.4 4.063985482
14.67476056 38.4 3.106670643
14.88719302 38.4 1.836160128
15.98915815 38.4 0.5889155671
15.9807273 38.4 -0.7850827892
16.8453448 38.4 -2.287872045
16.58693621 38.4 -3.724721083
17.15950873 38.4 -5.436107088
18.47759065 38.4 -7.653668647
21.30335089 38.4 -11.05292906
21.12133913 38.4 -13.3749405
19.89592262 38.4 -15.13777604
19.26472926 38.4 -17.46053283
19.05682794 38.4 -20.51431961
17.22648454 38.4 -22.07369997
15.26909968 38.4 -23.47029176
13.19910863 38.4 -24.6937954
11.03177712 38.4 -25.73518785
8.469406991 38.4 -25.63726088
6.469627032 38.4 -27.24231866
3.96172281 38.4 -26.70776577
1.594339144 38.4 -25.95107094
-0.6135307131 38.4 -24.99247047
-2.755555182 38.4 -24.84767425
-4.87725805 38.4 -24.51963201
-7.241511924 38.4 -24.9711935
-9.35727095 38.4 -24.25781277
-11.4040222 38.4 -23.36553611
-13.88077409 38.4 -23.15867247
-15.23074429 38.4 -21.07188715
-17.63566676 38.4 -20.44463886
-19.32473228 38.4 -18.85615873
-20.09827179 38.4 -16.49422539
-23.08850048 38.4 -15.8404907
-22.62226177 38.4 -12.815353
-24.54753554 38.4 -11.24359812
-23.53860163 38.4 -8.422246335
-22.24045883 38.4 -5.861910171
-21.67610813 38.4 -3.761161553
-21.91887747 38.4 -1.887540872
-20 38.4 -3.673940397e-15
-18.92993963 38.4 1.630148935
-16.74971992 38.4 2.906352109
-15.47162354 38.4 4.077850554
-16.00624911 38.4 5.727127508
-12.72835176 38.4 5.830013841
-13.05130487 38.4 7.393472883
-11.54425024 38.4 7.920245351
-9.27612544 38.4 7.61271941
-8.588769903 38.4 8.380514993
-7.838074115 38.4 9.086506158
-6.443776432 38.4 8.915029181
-5.141027442 38.4 8.5772861
-4.386162385 38.4 8.986744657
-3.239055329 38.4 8.39693519
-2.506677204 38.4 8.643874675
-1.560722576 38.4 7.846282243
-0.9919998656 38.4 8.94516273
-0.1963298282 38.4 7.99759055
0.5518866267 38 8.983063016
1.32057427 38 8.90258859
2.079522975 38 8.75645957
2.823135664 38 8.545753625
3.939920401 38 9.191138517
4.242570631 38 7.937291379
4.907924896 38 7.54402235
6.152315906 38 7.883464276
7.486610976 38 8.059196988
8.891413504 38 8.058707458
9.550042855 38 7.266132497
11.82794991 38 7.489966678
13.31459431 38 6.908080664
14.78207252 38 6.122934918
14.29959061 38 4.53008924
14.63553195 38 3.286518602
14.86353953 38 2.018710628
14.98193184 38 0.7360151149
15.98915815 38 -0.5889155671
16.87215209 38 -2.080981478
16.6313953 38 -3.520893395
20.09574705 38 -6.095978222
19.49862769 38 -7.797661073
19.65093463 38 -9.891449252
21.28387983 38 -13.11474207
20.88339582 38 -15.48818192
20.22668265 38 -17.88522599
19.30713525 38 -20.27891832
18.12092516 38 -22.64137963
15.55596652 38 -23.28114914
13.50114562 38 -24.52996264
11.34675679 38 -25.59787316
8.783377888 38 -25.53139779
6.560464857 38 -26.19084384
4.28916987 38 -26.65713829
1.986243217 38 -26.92684233
-0.3190599954 38 -25.99804225
-2.450428508 38 -24.87961817
-4.575997199 38 -24.57763719
-6.934531694 38 -25.05817771
-9.058885686 38 -24.37081431
-11.11643243 38 -23.50372162
-13.59553636 38 -23.32726712
-14.97101298 38 -21.25720514
-17.38345166 38 -20.65951617
-19.09188309 38 -19.09188309
-20.65951617 38 -17.38345166
-22.07478996 38 -15.54682117
-23.32726712 38 -13.59553636
-22.59973233 38 -10.68887734
-22.49613629 38 -8.362048326
-22.16684951 38 -6.134393422
-22.61142621 38 -4.209917423
-21.89406399 38 -2.156377087
-19.99849404 38 -0.2454307657
-19.94580913 38 1.471291272
-17.77142553 38 2.85944658
-16.4905313 38 4.130663058
-15.12971721 38 5.204964675
-13.71314634 38 6.07861971
-12.26498132 38 6.750572809
-11.64057457 38 7.777983262
-10.14958397 38 8.123173346
-8.690964995 38 8.274486537
-7.948989331 38 8.989636734
-6.552692349 38 8.835282846
-5.245896827 38 8.513551931
-4.046501967 38 8.039018711
-3.341854746 38 8.356554724
-2.612562095 38 8.612463022
-2.071113762 38 9.783173707
-1.101696077 38 8.932315811
-0.3312650065 38 8.993901461
0.3925413946 37.6 7.99036365
1.076645668 37.6 7.927221083
1.971911161 37.6 8.78131917
2.718053544 37.6 8.579754363
3.444150891 37.6 8.314915793
5.065925821 37.6 9.764035824
5.349976199 37.6 8.448535652
6.055110414 37.6 7.958369046
7.387148503 37.6 8.150462379
8.059196988 37.6 7.486610976
9.460157132 37.6 7.382779087
10.89692117 37.6 7.089224849
13.22881897 37.6 7.070951052
15.62493548 37.6 6.697864681
16.14197907 37.6 5.332589587
14.59409928 37.6 3.465871624
14.83764765 37.6 2.200957117
14.97177169 37.6 0.9198110445
15.9951811 37.6 -0.3926596564
16.89641849 37.6 -1.873777524
16.67334977 37.6 -3.316535474
18.24817987 37.6 -5.291874098
18.65985598 37.6 -7.197900731
20.66951271 37.6 -10.08817349
21.44321525 37.6 -12.8525686
19.45097276 37.6 -14.05914858
20.44463886 37.6 -17.63566676
18.85615873 37.6 -19.32473228
18.39740524 37.6 -22.41730315
15.8404907 37.6 -23.08850048
13.80114938 37.6 -24.36243575
11.24359812 37.6 -24.54753554
9.096026042 37.6 -25.42168976
6.881372809 37.6 -26.10836472
4.615970997 37.6 -26.60249634
2.316527433 37.6 -26.90044053
3.184081678e-15 37.6 -26
-2.144932809 37.6 -24.9078153
-4.445009108 37.6 -25.6172187
-6.881372809 37.6 -26.10836472
-9.096026042 37.6 -25.42168976
-11.24359812 37.6 -24.54753554
-13.30825119 37.6 -23.49234876
-14.70902708 37.6 -21.43932187
-17.12861867 37.6 -20.87128224
-18.85615873 37.6 -19.32473228
-20.44463886 37.6 -17.63566676
-21.07188715 37.6 -15.23074429
-22.30094386 37.6 -13.36667135
-24.26421057 37.6 -11.84263844
-23.32481997 37.6 -8.997375913
-23.05033247 37.6 -6.684472545
-23.53884673 37.6 -4.682167728
-20.87204637 37.6 -2.314666353
-20.99367519 37.6 -0.515365799
-18.96424415 37.6 1.16509399
-18.79435369 37.6 2.787879015
-15.56703924 37.6 3.696929732
-16.14197907 37.6 5.332589587
-13.78670778 37.6 5.909880601
-12.3468977 37.6 6.599554316
-12.57337058 37.6 8.179874826
-10.24850356 37.6 7.998010678
-8.79185126 37.6 8.167211974
-8.058707458 37.6 8.891413504
-6.660621455 37.6 8.754205951
-5.884973819 37.6 9.293389218
-5.065925821 37.6 9.764035824
-3.826834324 37.6 9.238795325
-3.020059493 37.6 9.533060404
-1.971911161 37.6 8.78131917
-1.076645668 37.6 7.927221083
-0.4416090689 37.6 8.989159106
0.3312650065 37.2 8.993901461
0.9792854016 37.2 7.939836277
2.071113762 37.2 9.783173707
2.612562095 37.2 8.612463022
3.341854746 37.2 8.356554724
4.496113297 37.2 8.932243012
5.245896827 37.2 8.513551931
5.956993045 37.2 8.032075315
7.286573553 37.2 8.24050034
8.690964995 37.2 8.274486537
9.368846743 37.2 7.498313858
11.64057457 37.2 7.777983262
13.14105141 37.2 7.232756581
16.4557756 37.2 7.294343652
15.12971721 37.2 5.204964675
14.5504688 37.2 3.644702699
14.80952127 37.2 2.38287215
14.95935685 37.2 1.103468454
15.99879523 37.2 -0.1963446126
15.92295563 37.2 -1.568274245
17.69589877 37.2 -3.294717983
18.31174525 37.2 -5.067542392
17.80944123 37.2 -6.619954925
20.79175374 37.2 -9.833767149
19.87137569 37.2 -11.58138283
20.43962033 37.2 -14.39520479
20.65951617 37.2 -17.38345166
19.79898987 37.2 -19.79898987
18.0272832 37.2 -21.42468344
16.69843755 37.2 -23.70995958
14.09907474 37.2 -24.19123997
11.54398752 37.2 -24.40771091
9.407304367 37.2 -25.30815332
7.201244452 37.2 -26.02195378
4.759037087 37.2 -25.56074267
2.548445649 37.2 -25.87480289
0.3067884571 37.2 -24.99811755
-1.912678654 37.2 -25.92955187
-4.130311727 37.2 -25.66983687
-6.317484677 37.2 -25.22081258
-8.783377888 37.2 -25.53139779
-10.94151548 37.2 -24.6836634
-12.53677807 37.2 -22.77782245
-15.55596652 37.2 -23.28114914
-16.87120618 37.2 -21.07990517
-18.61759471 37.2 -19.55467124
-19.47754626 37.2 -17.22281022
-22.48981088 37.2 -16.67958053
-22.13523502 37.2 -13.63933175
-23.22383183 37.2 -11.68989457
-23.21265201 37.2 -9.282929849
-22.96656806 37.2 -6.966832254
-22.50129953 37.2 -4.763561652
-20.84207023 37.2 -2.570624179
-19.98644769 37.2 -0.7361444588
-18.97711367 37.2 0.9322858122
-16.8453448 37.2 2.287872045
-16.58693621 37.2 3.724721083
-15.25289665 37.2 4.832095189
-14.78207252 37.2 6.122934918
-14.20223393 37.2 7.368619375
-12.67280348 37.2 8.024964298
-11.14171666 37.2 8.47715458
-9.63236463 37.2 8.730266413
-8.167211974 37.2 8.79185126
-7.382779087 37.2 9.460157132
-5.998574873 37.2 9.220471761
-4.713967368 37.2 8.819212643
-4.333912441 37.2 10.11025237
-2.509453923 37.2 7.596225445
-2.079522975 37.2 8.75645957
-1.32057427 37.2 8.90258859
-0.4905658904 37.2 7.984944903
0.2208710567 36.8 8.997289368
0.8817776584 36.8 7.95125576
1.755812898 36.8 8.827067524
2.506677204 36.8 8.643874675
3.598950365 36.8 9.329927988
4.386162385 36.8 8.986744657
5.141027442 36.8 8.5772861
5.857978575 36.8 8.104571983
6.53172843 36.8 7.572088465
8.588769903 36.8 8.380514993
9.27612544 36.8 7.61271941
11.54425024 36.8 7.920245351
13.05130487 36.8 7.393472883
17.27419168 36.8 7.912161642
16.00624911 36.8 5.727127508
15.47162354 36.8 4.077850554
14.77916464 36.8 2.564428331
15.94100179 36.8 1.372756998
16 36.8 9.797174393e-16
16.93731441 36.8 -1.45855431
16.74971992 36.8 -2.906352109
17.40557648 36.8 -4.587581873
18.8308813 36.8 -6.737797068
20.00169563 36.8 -9.161450322
20.88208779 36.8 -11.82955661
21.43932187 36.8 -14.70902708
20.09827179 36.8 -16.49422539
20.04046311 36.8 -19.55453498
18.2888396 36.8 -21.2018477
16.40234001 36.8 -22.69280155
14.39487684 36.8 -24.01640108
12.28125468 36.8 -25.16288504
10.07706102 36.8 -26.12379837
8.077070992 36.8 -27.85248506
5.072348372 36.8 -25.50041729
2.975999597 36.8 -26.83548819
0.6380719416 36.8 -25.99216929
-1.533018408 36.8 -24.95295282
-3.814992336 36.8 -25.71858926
-6.007510815 36.8 -25.29643876
-8.469406991 36.8 -25.63726088
-10.63778508 36.8 -24.816074
-12.25631516 36.8 -22.92995287
-14.72377469 36.8 -22.63206705
-16.61125295 36.8 -21.28535355
-18.37622694 36.8 -19.78166534
-20.00568038 36.8 -18.13209178
-21.48759642 36.8 -16.34879812
-22.81104626 36.8 -14.44493574
-23.96626975 36.8 -12.4345452
-23.09698831 36.8 -9.567085809
-24.78595705 36.8 -7.852154682
-23.41685112 36.8 -5.258429764
-21.79985798 36.8 -2.960775587
-20.97470458 36.8 -1.030421161
-18.98712531 36.8 0.6993372359
-17.86463162 36.8 2.203392154
-17.60971267 36.8 3.728004771
-16.26798571 36.8 4.934839513
-14.85609729 36.8 5.941075103
-12.50514022 36.8 6.294558615
-12.7703279 36.8 7.86884524
-11.24490544 36.8 8.339790263
-9.738773129 36.8 8.611405109
-8.274486537 36.8 8.690964995
-6.87345437 36.8 8.588109514
-5.55570233 36.8 8.314696123
-4.821837721 36.8 8.760700942
-4.457654454 36.8 10.05630731
-2.927792629 36.8 8.510465928
-2.429801799 36.8 9.700312532
-1.270865147 36.8 7.898411345
-0.5885165088 36.8 7.978323653
0.1104438446 36.4 8.999322317
0.9801714033 36.4 9.951847267
1.647358992 36.4 8.847949387
2.933840332 36.4 10.60153672
3.484186802 36.4 9.373390119
4.275550934 36.4 9.039892931
5.538922221 36.4 9.503701417
6.333890106 36.4 8.993432945
7.082146972 36.4 8.416839922
7.778174593 36.4 7.778174593
9.182007187 36.4 7.725978515
11.44618738 36.4 8.06131468
14.68753855 36.4 8.560152523
17.17579657 36.4 8.123546775
17.80944123 36.4 6.619954925
15.42041705 36.4 4.26740412
15.7296878 36.4 2.928638207
14.9277709 36.4 1.470257105
15.99879523 36.4 0.1963446126
16.95393776 36.4 -1.250597581
17.77142553 36.4 -2.85944658
17.46056256 36.4 -4.373643238
18.91214651 36.4 -6.506205843
19.19840487 36.4 -8.510067594
21.02568226 36.4 -11.57241053
21.61820992 36.4 -14.44482606
20.29916794 36.4 -16.24634669
20.27891832 36.4 -19.30713525
18.54764177 36.4 -20.97581905
16.67958053 36.4 -22.48981088
14.16392143 36.4 -22.98659021
12.58911723 36.4 -25.01028043
10.02556424 36.4 -25.06966417
8.127970963 36.4 -26.7943294
5.592007157 36.4 -26.41456901
3.427498906 36.4 -27.78942697
0.9569877965 36.4 -25.982382
-1.275759533 36.4 -25.96868186
-3.499098421 36.4 -25.76346852
-5.477531004 36.4 -24.39255325
-8.154160632 36.4 -25.73926309
-10.33245267 36.4 -24.94474738
-11.97400648 36.4 -23.07863013
-14.44493574 36.4 -22.81104626
-16.34879812 36.4 -21.48759642
-18.13209178 36.4 -20.00568038
-20.51431961 36.4 -19.05682794
-22.07369997 36.4 -17.22648454
-22.63206705 36.4 -14.72377469
-23.81187414 36.4 -12.72771189
-22.97784629 36.4 -9.849801002
-23.73820451 36.4 -7.84204351
-23.35055885 36.4 -5.545394599
-20.77270671 36.4 -3.081339964
-20.96048037 36.4 -1.287735462
-19.99397637 36.4 0.4908245705
-17.89032546 36.4 1.983999731
-17.65413505 36.4 3.511625796
-16.32731883 36.4 4.73483472
-15.86087758 36.4 6.118215621
-13.48011699 36.4 6.579243578
-12.86592915 36.4 7.711541163
-12.96731517 36.4 9.372765719
-10.60092385 36.4 9.144419801
-9.078891242 36.4 9.304500729
-7.61271941 36.4 9.27612544
-6.788781729 36.4 9.895071633
-5.421880115 36.4 9.570956902
-4.164295601 36.4 9.091679831
-3.368898534 36.4 9.415440652
-2.038925277 36.4 7.735811768
-1.538656999 36.4 8.867498782
-0.7721758111 36.4 8.96681351
0 36 9
0.6863784988 36 7.970500897
1.709618888 36 9.852776424
2.548656596 36 9.66976471
3.705788387 36 10.35698472
4.164295601 36 9.091679831
5.421880115 36 9.570956902
6.223049919 36 9.070482331
6.978326126 36 8.503114987
7.682138743 36 7.873039078
9.086506158 36 7.838074115
11.34640078 36 8.201170004
15.43911498 36 9.253849395
17.07481485 36 8.333708532
18.65985598 36 7.197900731
17.28774935 36 5.013354409
15.69256449 36 3.121445152
15.90251152 36 1.763555317
16.99487992 36 0.4172008849
16.96800792 36 -1.042452517
18.79435369 36 -2.787879015
18.48585909 36 -4.390104057
19.94009179 36 -6.587316548
20.22050474 36 -8.667824881
22.04803161 36 -11.78491842
20.95561764 36 -13.63312471
21.28535355 36 -16.61125295
19.78166534 36 -18.37622694
19.47520969 36 -21.48758264
16.95430916 36 -22.28343333
14.97993336 36 -23.65589983
12.89508391 36 -24.85390937
10.33245267 36 -24.94474738
8.456166581 36 -26.69256913
6.134834724 36 -27.31965964
3.768259838 36 -27.74527379
1.226691858 36 -24.96988641
-0.9569877965 36 -25.982382
-3.182677555 36 -25.8044679
-5.384895781 36 -25.43625164
-7.547401609 36 -24.88044873
-10.39688143 36 -25.99817025
-12.1395059 36 -24.11705613
-13.63933175 36 -22.13523502
-16.67958053 36 -22.48981088
-17.88522599 36 -20.22668265
-19.55467124 36 -18.61759471
-21.8606424 36 -17.49606567
-22.44967953 36 -15.00039629
-22.77782245 36 -12.53677807
-23.76945365 36 -10.53627416
-23.64018313 36 -8.132757304
-24.25078133 36 -6.074504498
-22.70793262 36 -3.653737297
-22.9376805 36 -1.691984963
-18.99856933 36 0.2331592274
-18.90850981 36 1.862325666
-18.67900426 36 3.477757871
-17.34796918 36 4.800829635
-16.87210221 36 6.271536244
-14.46382869 36 6.840881495
-13.8235657 36 8.05661414
-11.44618738 36 8.06131468
-10.71234172 36 9.0136416
-9.192388155 36 9.192388155
-7.725978515 36 9.182007187
-6.333890106 36 8.993432945
-5.538922221 36 9.503701417
-4.703106028 36 9.943882224
-3.832605483 36 10.31072913
-2.400414817 36 8.673984592
-1.647358992 36 8.847949387
-0.7841371226 36 7.961477813
-0.1104438446 36 8.999322317
0.6620810724 35.6 8.97561411
1.588581433 35.6 9.873014182
1.943841439 35.6 7.760250026
3.253102922 35.6 9.456073254
4.05241314 35.6 9.142097557
4.821837721 35.6 8.760700942
6.111272563 35.6 9.146165735
6.248594881 35.6 7.807372286
8.274486537 35.6 8.690964995
8.989636734 35.6 7.948989331
11.24490544 35.6 8.339790263
15.32439348 35.6 9.442614288
20.54415893 35.6 10.34106058
19.49862769 35.6 7.797661073
19.13880671 35.6 5.805693545
16.6313953 35.6 3.520893395
15.87967255 35.6 1.958570803
15.98915815 35.6 0.5889155671
16.97952276 35.6 -0.8341504636
15.85444217 35.6 -2.153291336
18.53834047 35.6 -4.162923563
20.01942685 35.6 -6.342124936
19.40147018 35.6 -8.03635208
20.41571127 35.6 -10.59239035
21.12133913 35.6 -13.3749405
21.48759642 35.6 -16.34879812
20.00568038 35.6 -18.13209178
19.73742894 35.6 -21.24697388
17.22648454 35.6 -22.07369997
15.26909968 35.6 -23.47029176
12.72771189 35.6 -23.81187414
10.63778508 35.6 -24.816074
8.783088731 35.6 -26.58678906
6.469627032 35.6 -27.24231866
3.96172281 35.6 -26.70776577
1.594339144 35.6 -25.95107094
-0.6626131701 35.6 -26.9918681
-2.755555182 35.6 -24.84767425
-4.87725805 35.6 -24.51963201
-7.520031613 35.6 -25.93162402
-9.717165986 35.6 -25.19080557
-11.4040222 35.6 -23.36553611
-14.39487684 35.6 -24.01640108
-15.81654215 35.6 -21.88234435
-17.63566676 35.6 -20.44463886
-19.32473228 35.6 -18.85615873
-21.64429269 35.6 -17.76301196
-23.08850048 35.6 -15.8404907
-23.49234876 35.6 -13.30825119
-23.63836756 35.6 -10.82716856
-23.53860163 35.6 -8.422246335
-24.17441178 35.6 -6.37164149
-22.66138577 35.6 -3.932123441
-20.92256486 35.6 -1.801743559
-20 35.6 -3.673940397e-15
-18.92993963 35.6 1.630148935
-19.70555285 35.6 3.419237775
-17.40557648 35.6 4.587581873
-15.06470504 35.6 5.390237654
-13.63751975 35.6 6.246443401
-13.92139186 35.6 7.886371076
-13.19342884 35.6 9.051708973
-10.04913589 35.6 8.247112694
-10.02023155 35.6 9.777267492
-8.491246958 35.6 9.843715005
-6.443776432 35.6 8.915029181
-5.655130186 35.6 9.43501471
-5.263394862 35.6 10.78409359
-3.598950365 35.6 9.329927988
-2.228157515 35.6 7.683444155
-1.755812898 35.6 8.827067524
-1.102222073 35.6 9.9390697
-0.1963298282 35.6 7.99759055
0.613207363 35.2 9.981181129
1.32057427 35.2 8.90258859
2.079522975 35.2 8.75645957
3.450499144 35.2 10.44480999
4.333912441 35.2 10.11025237
5.185364105 35.2 9.701133908
5.453249884 35.2 8.382247056
6.152315906 35.2 7.883464276
8.167211974 35.2 8.79185126
8.891413504 35.2 8.058707458
11.14171666 35.2 8.47715458
15.20736417 35.2 9.629957158
18.64043203 35.2 9.67131293
21.24922925 35.2 8.801718944
19.06612081 35.2 6.040118986
15.61123408 35.2 3.505619843
15.85444217 35.2 2.153291336
16.97952276 35.2 0.8341504636
16.98848054 35.2 -0.62572279
16.87215209 35.2 -2.080981478
18.58803004 35.2 -3.935116148
19.13880671 35.2 -5.805693545
19.49862769 35.2 -7.797661073
20.54415893 35.2 -10.34106058
20.43252463 35.2 -12.59015238
20.08018829 35.2 -14.89248261
20.22668265 35.2 -17.88522599
19.30713525 35.2 -20.27891832
18.12092516 35.2 -22.64137963
16.11153676 35.2 -24.11261876
13.50114562 35.2 -24.52996264
10.94151548 35.2 -24.6836634
9.108688181 35.2 -26.47700511
6.803445037 35.2 -27.16087509
4.606886157 35.2 -28.63174113
1.986243217 35.2 -26.92684233
-0.3190599954 35.2 -25.99804225
-2.548445649 35.2 -25.87480289
-4.575997199 35.2 -24.57763719
-6.934531694 35.2 -25.05817771
-9.058885686 35.2 -24.37081431
-11.54398752 35.2 -24.40771091
-13.09199798 35.2 -22.46329426
-15.54682117 35.2 -22.07478996
-17.38345166 35.2 -20.65951617
-19.09188309 35.2 -19.09188309
-21.42468344 35.2 -18.0272832
-22.89237477 35.2 -16.12262936
-22.46329426 35.2 -13.09199798
-24.40771091 35.2 -11.54398752
-23.4334753 35.2 -8.710467006
-24.09440164 35.2 -6.667818937
-23.5945317 35.2 -4.392957311
-21.89406399 35.2 -2.156377087
-21.99834344 35.2 -0.2699738423
-18.94851868 35.2 1.397726708
-17.77142553 35.2 2.85944658
-17.46056256 35.2 4.373643238
-17.02093186 35.2 5.855585259
-15.54156585 35.2 6.889102338
-14.01712151 35.2 7.714940353
-13.3035138 35.2 8.889123728
-11.71105843 35.2 9.372892322
-10.13945916 35.2 9.653567626
-8.611405109 35.2 9.738773129
-7.148391654 35.2 9.638490378
-6.295076192 35.2 10.21626232
-5.395335956 35.2 10.71869161
-4.084489133 35.2 10.21356689
-2.902846773 35.2 9.569403357
-1.864002386 35.2 8.804856336
-1.224106752 35.2 9.924795346
-0.3312650065 35.2 8.993901461
0.4416090689 34.8 8.989159106
1.345807085 34.8 9.909026354
2.191012402 34.8 9.7570213
3.020059493 34.8 9.533060404
4.209517756 34.8 10.16267486
5.065925821 34.8 9.764035824
5.884973819 34.8 9.293389218
6.660621455 34.8 8.754205951
8.058707458 34.8 8.891413504
8.79185126 34.8 8.167211974
10.24850356 34.8 7.998010678
15.0880447 34.8 9.815849792
20.28418908 34.8 10.84212495
22.05873244 34.8 9.455808961
22.78867633 34.8 7.52836177
18.48585909 34.8 4.390104057
16.81600067 34.8 2.494418066
16.96800792 34.8 1.042452517
16.99487992 34.8 -0.4172008849
17.89032546 34.8 -1.983999731
18.63492033 34.8 -3.706716118
19.20861039 34.8 -5.570393788
19.59284878 34.8 -7.557795767
20.66951271 34.8 -10.08817349
20.58548664 34.8 -12.33846586
21.88234435 34.8 -15.81654215
21.2018477 34.8 -18.2888396
19.55453498 34.8 -20.04046311
18.39740524 34.8 -22.41730315
16.40622251 34.8 -23.91308978
14.29404757 34.8 -25.23252274
11.24359812 34.8 -24.54753554
9.096026042 34.8 -25.42168976
7.136238469 34.8 -27.07534119
4.786932885 34.8 -27.58777399
2.316527433 34.8 -26.90044053
3.061616998e-15 34.8 -25
-2.144932809 34.8 -24.9078153
-4.615970997 34.8 -26.60249634
-6.881372809 34.8 -26.10836472
-8.759136188 34.8 -24.48014569
-11.24359812 34.8 -24.54753554
-13.30825119 34.8 -23.49234876
-15.27475889 34.8 -22.26391118
-17.12861867 34.8 -20.87128224
-18.85615873 34.8 -19.32473228
-20.44463886 34.8 -17.63566676
-21.88234435 34.8 -15.81654215
-24.01640108 34.8 -14.39487684
-24.26421057 34.8 -11.84263844
-23.32481997 34.8 -8.997375913
-24.9711935 34.8 -7.241511924
-24.51963201 34.8 -4.87725805
-22.85986031 34.8 -2.535110768
-21.99337401 34.8 -0.5399070275
-19.96236226 34.8 1.226414726
-18.79435369 34.8 2.787879015
-17.51291914 34.8 4.159045949
-17.09150725 34.8 5.646271327
-15.62493548 34.8 6.697864681
-14.99266149 34.8 8.013744526
-13.41159529 34.8 8.725199815
-12.61354284 34.8 9.843705449
-9.524505532 34.8 8.847812971
-9.401825368 34.8 10.37331575
-6.660621455 34.8 8.754205951
-6.419971439 34.8 10.13824278
-5.065925821 34.8 9.764035824
-3.826834324 34.8 9.238795325
-3.020059493 34.8 9.533060404
-2.191012402 34.8 9.7570213
-1.211226377 34.8 8.918123719
-0.4906767433 34.8 9.987954562
0.3312650065 34.4 8.993901461
1.101696077 34.4 8.932315811
1.864002386 34.4 8.804856336
2.902846773 34.4 9.569403357
4.084489133 34.4 10.21356689
4.945724626 34.4 9.825467313
5.245896827 34.4 8.513551931
6.552692349 34.4 8.835282846
7.286573553 34.4 8.24050034
9.415212078 34.4 8.964027082
10.9303212 34.4 8.748032834
14.13498341 34.4 9.444693961
21.02568226 34.4 11.57241053
23.76945365 34.4 10.53627416
22.69457581 34.4 7.807447012
19.40062506 34.4 4.859603598
16.78412411 34.4 2.700588437
16.95393776 34.4 1.250597581
16.99871993 34.4 -0.2086161509
17.91332508 34.4 -1.764308526
17.69589877 34.4 -3.294717983
19.27552132 34.4 -5.334255149
20.62145826 34.4 -7.665210965
20.79175374 34.4 -9.833767149
20.73534855 34.4 -12.08492121
21.25720514 34.4 -14.97101298
21.42468344 34.4 -18.0272832
19.79898987 34.4 -19.79898987
17.38345166 34.4 -20.65951617
16.12262936 34.4 -22.89237477
14.60261313 34.4 -25.05521283
11.97154262 34.4 -25.31170021
9.407304367 34.4 -25.30815332
7.467957209 34.4 -26.98572984
4.942076975 34.4 -26.54384816
2.646462789 34.4 -26.86998762
0.3313315337 34.4 -26.99796695
-1.912678654 34.4 -25.92955187
-3.971453583 34.4 -24.68253545
-6.317484677 34.4 -25.22081258
-8.458067596 34.4 -24.58579046
-10.94151548 34.4 -24.6836634
-13.01896185 34.4 -23.65389254
-14.44482606 34.4 -21.61820992
-16.87120618 34.4 -21.07990517
-17.92805416 34.4 -18.83042416
-20.97581905 34.4 -18.54764177
-21.68660335 34.4 -16.08388122
-23.83794541 34.4 -14.68851111
-24.11705613 34.4 -12.1395059
-25.06966417 34.4 -10.02556424
-23.92350839 34.4 -7.257116931
-24.45793427 34.4 -5.177784405
-22.8270293 34.4 -2.81544553
-22.98441485 34.4 -0.8465661277
-20.97470458 34.4 1.030421161
-18.82715007 34.4 2.557033462
-18.53834047 34.4 4.162923563
-16.20620269 34.4 5.134101138
-14.78207252 34.4 6.122934918
-15.08987355 34.4 7.829158086
-12.67280348 34.4 8.024964298
-11.93755357 34.4 9.082665621
-11.11426688 34.4 10.07338432
-8.847812971 34.4 9.524505532
-7.998010678 34.4 10.24850356
-6.543899861 34.4 10.05869647
-5.185364105 34.4 9.701133908
-3.939920401 34.4 9.191138517
-3.136817404 34.4 9.495281806
-2.310581083 34.4 9.729399522
-1.467304745 34.4 9.8917651
-0.613207363 34.4 9.981181129
0.2454122852 34 9.996988187
0.9919998656 34 8.94516273
1.755812898 34 8.827067524
2.785196894 34 9.604305194
3.598950365 34 9.329927988
4.386162385 34 8.986744657
6.16923293 34 10.29274332
7.029574289 34 9.725486379
7.838074115 34 9.086506158
7.873039078 34 7.682138743
10.04913589 34 8.247112694
14.01801815 34 9.617440783
20.0120008 34 11.33665842
24.54753554 34 11.24359812
24.48014569 34 8.759136188
20.30650589 34 5.352178852
16.74971992 34 2.906352109
16.93731441 34 1.45855431
18 34 1.102182119e-15
18.92993963 34 -1.630148935
18.72027521 34 -3.248275886
18.37255295 34 -4.842447532
20.71396943 34 -7.411576775
20.91086361 34 -9.577879882
21.75217478 34 -12.32245481
21.43932187 34 -14.70902708
20.87128224 34 -17.12861867
20.04046311 34 -19.55453498
18.2888396 34 -21.2018477
16.98813787 34 -23.50325875
14.39487684 34 -24.01640108
12.71987092 34 -26.06155951
9.717165986 34 -25.19080557
7.798551303 34 -26.89205454
5.462529016 34 -27.46198785
3.196444012 34 -28.82330213
0.6380719416 34 -25.99216929
-1.594339144 34 -25.95107094
-3.814992336 34 -25.71858926
-5.776452707 34 -24.32349881
-8.15572525 34 -24.6877327
-10.24379304 34 -23.89696014
-12.25631516 34 -22.92995287
-14.1784497 34 -21.79384234
-17.22648454 34 -22.07369997
-18.37622694 34 -19.78166534
-20.74663151 34 -18.80365074
-23.07927023 34 -17.5598202
-23.65589983 34 -14.97993336
-23.96626975 34 -12.4345452
-24.94474738 34 -10.33245267
-23.83265101 34 -7.550148733
-25.36825538 34 -5.696632244
-24.77256589 34 -3.364517713
-22.97229549 34 -1.12855651
-19.98644769 34 0.7361444588
-19.84959069 34 2.448213504
-17.60971267 34 3.728004771
-18.18186638 34 5.515408868
-16.71310945 34 6.683709491
-16.07803742 34 8.093003934
-13.62168309 34 8.393434923
-12.8513205 34 9.531188872
-11.23704592 34 9.936236664
-9.653567626 34 10.13945916
-8.123173346 34 10.14958397
-6.666842796 34 9.977635348
-5.304021493 34 9.636771036
-4.457654454 34 10.05630731
-3.253102922 34 9.456073254
-2.429801799 34 9.700312532
-1.588581433 34 9.873014182
-0.735645636 34 9.972904567
0.1227153829 33.6 9.999247018
0.882154263 33.6 8.95666254
1.83039888 33.6 9.831054874
3.20055309 33.6 11.56531279
3.484186802 33.6 9.373390119
4.275550934 33.6 9.039892931
5.538922221 33.6 9.503701417
6.909698297 33.6 9.811017758
7.725978515 33.6 9.182007187
9.192388155 33.6 9.192388155
10.71234172 33.6 9.0136416
13.89894182 33.6 9.788739254
20.73534855 33.6 12.08492121
25.31170021 33.6 11.97154262
26.24549233 33.6 9.755723047
23.13062558 33.6 6.401106179
17.69589877 33.6 3.294717983
16.91814035 33.6 1.666291386
16.99871993 33.6 0.2086161509
17.95122822 33.6 -1.324162145
19.74602836 33.6 -3.177162867
19.40062506 33.6 -4.859603598
20.80336116 33.6 -7.156826428
21.02682438 33.6 -9.320550222
21.02568226 33.6 -11.57241053
21.61820992 33.6 -14.44482606
21.07990517 33.6 -16.87120618
20.27891832 33.6 -19.30713525
18.54764177 33.6 -20.97581905
17.27527983 33.6 -23.29301841
15.2131008 33.6 -24.6893006
12.58911723 33.6 -25.01028043
10.76819862 33.6 -26.92667633
8.127970963 33.6 -26.7943294
6.00622991 33.6 -28.37120375
3.549909581 33.6 -28.7819065
0.9569877965 33.6 -25.982382
-1.275759533 33.6 -25.96868186
-3.364517713 33.6 -24.77256589
-5.696632244 33.6 -25.36825538
-7.852154682 33.6 -24.78595705
-10.33245267 33.6 -24.94474738
-12.4345452 33.6 -23.96626975
-14.97993336 33.6 -23.65589983
-16.34879812 33.6 -21.48759642
-17.46053283 33.6 -19.26472926
-20.51431961 33.6 -19.05682794
-21.28535355 33.6 -16.61125295
-23.47029176 33.6 -15.26909968
-24.6937954 33.6 -13.19910863
-24.816074 33.6 -10.63778508
-24.6877327 33.6 -8.15572525
-24.32349881 33.6 -5.776452707
-23.74023624 33.6 -3.521531387
-22.9567166 33.6 -1.410376935
-21.99337401 33.6 0.5399070275
-19.8781394 33.6 2.204444146
-18.63492033 33.6 3.706716118
-18.24817987 33.6 5.291874098
-16.79387038 33.6 6.478110658
-15.27746592 33.6 7.456476055
-15.43911498 33.6 9.253849395
-12.15685797 33.6 8.786967862
-11.3581327 33.6 9.797592644
-10.47564374 33.6 10.73596238
-8.247112694 33.6 10.04913589
-6.788781729 33.6 9.895071633
-5.914778307 33.6 10.44104389
-4.580725161 33.6 10.00084781
-3.368898534 33.6 9.415440652
-2.548656596 33.6 9.66976471
-1.880580776 33.6 10.83805407
-0.8579731234 33.6 9.963126122
0 33.2 10
0.8579731234 33.2 9.963126122
1.880580776 33.2 10.83805407
2.803522256 33.2 10.63674118
3.705788387 33.2 10.35698472
4.997154721 33.2 10.9100158
5.421880115 33.2 9.570956902
6.223049919 33.2 9.070482331
7.61271941 33.2 9.27612544
9.078891242 33.2 9.304500729
10.60092385 33.2 9.144419801
14.58822957 33.2 10.54436143
18.87002942 33.2 11.31026037
26.96023397 33.2 13.15848716
27.98978397 33.2 10.7968511
24.9711935 33.2 7.241511924
17.65413505 33.2 3.511625796
16.89641849 33.2 1.873777524
17.99457874 33.2 0.4417421134
17.96612603 33.2 -1.103773253
18.79435369 33.2 -2.787879015
19.45879904 33.2 -4.621162166
20.88961997 33.2 -6.900998289
21.13961859 33.2 -9.061816921
21.16611034 33.2 -11.31352168
21.79384234 33.2 -14.1784497
22.07369997 33.2 -17.22648454
21.24697388 33.2 -19.73742894
19.47520969 33.2 -21.48758264
18.16533124 33.2 -23.87510714
14.97993336 33.2 -23.65589983
13.35562262 33.2 -25.74154899
10.71513611 33.2 -25.86862691
8.456166581 33.2 -26.69256913
6.134834724 33.2 -27.31965964
3.768259838 33.2 -27.74527379
1.324827207 33.2 -26.96747732
-0.9569877965 33.2 -25.982382
-3.06026688 33.2 -24.81198836
-5.384895781 33.2 -25.43625164
-7.837686286 33.2 -25.83738906
-10.02556424 33.2 -25.06966417
-12.1395059 33.2 -24.11705613
-14.16392143 33.2 -22.98659021
-16.67958053 33.2 -22.48981088
-17.88522599 33.2 -20.22668265
-18.83042416 33.2 -17.92805416
-22.64137963 33.2 -18.12092516
-22.44967953 33.2 -15.00039629
-22.77782245 33.2 -12.53677807
-24.6836634 33.2 -10.94151548
-25.53139779 33.2 -8.783377888
-24.25078133 33.2 -6.074504498
-24.68253545 33.2 -3.971453583
-23.93497096 33.2 -1.765549526
-20.99841874 33.2 0.257702304
-20.89887926 33.2 2.058359947
-19.66210975 33.2 3.660797759
-18.31174525 33.2 5.067542392
-17.80944123 33.2 6.619954925
-15.36781798 33.2 7.268436588
-14.68753855 33.2 8.560152523
-12.2637722 33.2 8.637122871
-12.24267625 33.2 10.30130469
-10.60660172 33.2 10.60660172
-9.0136416 33.2 10.71234172
-7.485506488 33.2 10.62860257
-6.042460605 33.2 10.36767427
-5.130661121 33.2 10.84787152
-3.484186802 33.2 9.373390119
-2.667127575 33.2 9.637760658
-1.83039888 33.2 9.831054874
-0.9801714033 33.2 9.951847267
-0.1227153829 33.2 9.999247018
0.8092101996 32.8 10.97019502
1.747439577 32.8 10.8603156
2.672781979 32.8 10.67034379
3.253102922 32.8 9.456073254
4.862895768 32.8 10.97051707
5.304021493 32.8 9.636771036
6.666842796 32.8 9.977635348
7.498313858 32.8 9.368846743
8.964027082 32.8 9.415212078
9.738773129 32.8 8.611405109
13.65452804 32.8 10.12688818
20.43252463 32.8 12.59015238
26.79672904 32.8 13.48833989
29.71219458 32.8 11.88215021
26.7943294 32.8 8.127970963
19.56634741 32.8 4.142227524
16.87215209 32.8 2.080981478
17.98780292 32.8 0.6625300129
17.97831821 32.8 -0.8832181379
19.81805271 32.8 -2.69161417
19.5140426 32.8 -4.382024803
20.01942685 32.8 -6.342124936
20.32534972 32.8 -8.419035512
20.41571127 32.8 -10.59239035
21.9661927 32.8 -13.90993812
20.69175952 32.8 -15.74328708
20.74663151 32.8 -18.80365074
19.05682794 32.8 -20.51431961
17.22648454 32.8 -22.07369997
16.35974965 32.8 -25.14674117
13.19910863 32.8 -24.6937954
11.03177712 32.8 -25.73518785
8.469406991 32.8 -25.63726088
6.469627032 32.8 -27.24231866
4.255183759 32.8 -28.68611879
1.65565988 32.8 -26.94918905
-0.6626131701 32.8 -26.9918681
-2.86577739 32.8 -25.84158122
-5.072348372 32.8 -25.50041729
-7.241511924 32.8 -24.9711935
-10.07706102 32.8 -26.12379837
-11.4040222 32.8 -23.36553611
-13.88077409 32.8 -23.15867247
-15.23074429 32.8 -21.07188715
-17.63566676 32.8 -20.44463886
-19.32473228 32.8 -18.85615873
-21.64429269 32.8 -17.76301196
-23.91308978 32.8 -16.40622251
-24.36243575 32.8 -13.80114938
-24.54753554 32.8 -11.24359812
-25.42168976 32.8 -9.096026042
-25.14138825 32.8 -6.62650715
-24.63194106 32.8 -4.274047219
-23.91150269 32.8 -2.059135496
-22 32.8 -4.041334437e-15
-19.92625224 32.8 1.715946247
-19.70555285 32.8 3.419237775
-18.37255295 32.8 4.842447532
-18.8308813 32.8 6.737797068
-15.45585571 32.8 7.079302522
-14.79147885 32.8 8.379269268
-13.19342884 32.8 9.051708973
-11.5951568 32.8 9.515899262
-10.02023155 32.8 9.777267492
-9.797592644 32.8 11.3581327
-7.615372147 32.8 10.53594358
-6.16923293 32.8 10.29274332
-4.824778624 32.8 9.885419123
-4.318740438 32.8 11.19591359
-3.063716583 32.8 10.56473571
-1.95090322 32.8 9.807852804
-1.21244428 32.8 10.93297667
-0.2699535138 32.8 10.99668701
0.613207363 32.4 9.981181129
1.614035219 32.4 10.88094161
2.772697299 32.4 11.67527943
3.450499144 32.4 10.44480999
4.727904481 32.4 11.02936622
5.656760842 32.4 10.58305517
6.543899861 32.4 10.05869647
7.998010678 32.4 10.24850356
8.167211974 32.4 8.79185126
9.63236463 32.4 8.730266413
12.73339047 32.4 9.688176662
18.58677844 32.4 11.76994764
26.62918861 32.4 13.81616133
31.41190411 32.4 13.0112367
30.50579329 32.4 9.664190378
23.41685112 32.4 5.258429764
17.83624744 32.4 2.422452753
17.97831821 32.4 0.8832181379
17.98780292 32.4 -0.6625300129
18.85711116 32.4 -2.325802829
19.56634741 32.4 -4.142227524
19.13880671 32.4 -5.805693545
21.35563985 32.4 -8.540295461
20.54415893 32.4 -10.34106058
21.28387983 32.4 -13.11474207
20.88339582 32.4 -15.48818192
20.97581905 32.4 -18.54764177
19.30713525 32.4 -20.27891832
17.49606567 32.4 -21.8606424
16.11153676 32.4 -24.11261876
13.98332939 32.4 -25.40603273
11.75199811 32.4 -26.51208292
9.433998473 32.4 -27.42261244
6.803445037 32.4 -27.16087509
4.448028013 32.4 -27.64443971
1.986243217 32.4 -26.92684233
-0.3190599954 32.4 -25.99804225
-2.548445649 32.4 -25.87480289
-4.759037087 32.4 -25.56074267
-6.934531694 32.4 -25.05817771
-9.058885686 32.4 -24.37081431
-11.11643243 32.4 -23.50372162
-13.59553636 32.4 -23.32726712
-15.54682117 32.4 -22.07478996
-17.38345166 32.4 -20.65951617
-19.79898987 32.4 -19.79898987
-21.42468344 32.4 -18.0272832
-22.89237477 32.4 -16.12262936
-24.19123997 32.4 -14.09907474
-25.31170021 32.4 -11.97154262
-26.24549233 32.4 -9.755723047
-26.02195378 32.4 -7.201244452
-25.56074267 32.4 -4.759037087
-23.88443344 32.4 -2.352411368
-20.99841874 32.4 -0.257702304
-21.94039005 32.4 1.618420399
-19.74602836 32.4 3.177162867
-17.46056256 32.4 4.373643238
-17.96653918 32.4 6.180895551
-16.4557756 32.4 7.294343652
-15.7692617 32.4 8.679307897
-14.13498341 32.4 9.444693961
-12.49179566 32.4 9.99775181
-12.31220041 32.4 11.72218926
-9.273820886 32.4 10.48790952
-7.744090958 32.4 10.44169791
-7.344255557 32.4 11.9189727
-5.844947286 32.4 11.61191592
-4.455806327 32.4 11.14207297
-3.483416127 32.4 11.48328403
-2.071113762 32.4 9.783173707
-1.224106752 32.4 9.924795346
-0.3680722294 32.4 9.993223846
0.5397444176 32 10.98675002
1.614968502 32 11.89083163
2.629214882 32 11.70842556
3.624071392 32 11.43967248
4.209517756 32 10.16267486
5.526464531 32 10.65167544
6.419971439 32 10.13824278
7.266132497 32 9.550042855
8.730266413 32 9.63236463
10.98981408 32 10.20901497
12.61354284 32 9.843705449
18.44094352 32 11.99714975
26.45763793 32 14.1419021
30.33075711 32 13.00173732
30.38490178 32 10.03781569
24.32349881 32 5.776452707
18.79435369 32 2.787879015
17.96612603 32 1.103773253
17.99457874 32 -0.4417421134
18.88423243 32 -2.094221939
19.61570561 32 -3.90180644
21.12947143 32 -6.127433166
21.45883437 32 -8.27758584
22.46686164 32 -10.96540596
22.30094386 32 -13.36667135
21.07188715 32 -15.23074429
20.44463886 32 -17.63566676
19.55453498 32 -20.04046311
18.39740524 32 -22.41730315
16.40622251 32 -23.91308978
14.29404757 32 -25.23252274
11.66002768 32 -25.45670353
9.432915895 32 -26.36323383
7.136238469 32 -27.07534119
4.786932885 32 -27.58777399
2.316527433 32 -26.90044053
3.184081678e-15 32 -26
-2.230730121 32 -25.90412792
-3.932123441 32 -22.66138577
-6.881372809 32 -26.10836472
-9.096026042 32 -25.42168976
-10.82716856 32 -23.63836756
-13.30825119 32 -23.49234876
-15.27475889 32 -22.26391118
-17.76301196 32 -21.64429269
-19.55453498 32 -20.04046311
-21.2018477 32 -18.2888396
-23.50325875 32 -16.98813787
-24.01640108 32 -14.39487684
-25.16288504 32 -12.28125468
-25.19080557 32 -9.717165986
-24.9711935 32 -7.241511924
-25.50041729 32 -5.072348372
-23.85376728 32 -2.645332975
-22.99307283 32 -0.564448256
-20.96048037 32 1.287735462
-18.79435369 32 2.787879015
-18.48585909 32 4.390104057
-18.04103543 32 5.959953068
-17.46316318 32 7.485848761
-14.99266149 32 8.013744526
-15.0880447 32 9.815849792
-13.40188927 32 10.45893704
-11.72246835 32 10.88961596
-10.07338432 32 11.11426688
-7.871643538 32 10.34587976
-7.489966678 32 11.82794991
-5.526464531 32 10.65167544
-4.592201188 32 11.08655439
-3.322065443 32 10.48636644
-2.410113642 32 10.73272343
-1.480387794 32 10.89992899
-0.4906767433 32 9.987954562
0.4048794524 31.6 10.99254623
1.468928102 31.6 11.90975442
2.485336514 31.6 11.73980845
3.773700804 31.6 12.44022436
4.827123521 31.6 12.07057905
5.395335956 31.6 10.71869161
6.295076192 31.6 10.21626232
7.148391654 31.6 9.638490378
8.611405109 31.6 9.738773129
10.13945916 31.6 9.653567626
13.27253289 31.6 10.6226113
19.12380108 31.6 12.77811536
28.03424301 31.6 15.42988071
32.91155121 31.6 14.5886873
33.09625639 31.6 11.38586023
26.19084384 31.6 6.560464857
18.75872694 31.6 3.018304723
17.95122822 31.6 1.324162145
18.99856933 31.6 -0.2331592274
18.90850981 31.6 -1.862325666
18.67900426 31.6 -3.477757871
20.23929738 31.6 -5.600967907
21.55879727 31.6 -8.013629646
22.59973233 31.6 -10.68887734
21.5993214 31.6 -12.58845959
22.07478996 31.6 -15.54682117
21.42468344 31.6 -18.0272832
19.79898987 31.6 -19.79898987
18.67111474 31.6 -22.1898507
16.12262936 31.6 -22.89237477
14.09907474 31.6 -24.19123997
11.97154262 31.6 -25.31170021
9.755723047 31.6 -26.24549233
7.467957209 31.6 -26.98572984
5.308156751 31.6 -28.51005914
2.744479929 31.6 -27.86517235
0.3313315337 31.6 -26.99796695
-1.986243217 31.6 -26.92684233
-3.971453583 31.6 -24.68253545
-5.831524318 31.6 -23.28075008
-8.783377888 31.6 -25.53139779
-10.94151548 31.6 -24.6836634
-13.50114562 31.6 -24.52996264
-15.00039629 31.6 -22.44967953
-16.87120618 31.6 -21.07990517
-19.30713525 31.6 -20.27891832
-20.22668265 31.6 -17.88522599
-23.29301841 31.6 -17.27527983
-22.98659021 31.6 -14.16392143
-24.11705613 31.6 -12.1395059
-25.06966417 31.6 -10.02556424
-25.83738906 31.6 -7.837686286
-26.41456901 31.6 -5.592007157
-23.81950883 31.6 -2.937856205
-21.98509246 31.6 -0.8097589047
-20.97470458 31.6 1.030421161
-21.79985798 31.6 2.960775587
-19.5140426 31.6 4.382024803
-18.11281477 31.6 5.738113037
-16.62983159 31.6 6.888301783
-16.86515279 31.6 8.750235508
-15.20736417 31.6 9.629957158
-13.52922738 31.6 10.2936877
-11.85521801 31.6 10.74494328
-10.88961596 31.6 11.72246835
-8.613242268 31.6 11.03684999
-7.089224849 31.6 10.89692117
-6.128157579 31.6 11.46497644
-4.727904481 31.6 11.02936622
-3.136817404 31.6 9.495281806
-2.310581083 31.6 9.729399522
-1.760765693 31.6 11.87011812
-0.613207363 31.6 9.981181129
0.2699535138 31.2 10.99668701
1.21244428 31.2 10.93297667
2.341083864 31.2 11.76942336
3.342236273 31.2 11.52516623
4.318740438 31.2 11.19591359
5.702011101 31.2 11.68276805
6.683335675 31.2 11.15047193
7.615372147 31.2 10.53594358
9.144419801 31.2 10.60092385
10.02023155 31.2 9.777267492
12.36816725 31.2 10.15029255
17.31637536 31.2 11.88036803
26.10260973 31.2 14.78694577
32.73004739 31.2 14.99146416
33.89558635 31.2 12.12803472
28.04231766 31.2 7.391104129
20.69083049 31.2 3.590199664
17.93362702 31.2 1.544351622
18 31.2 1.102182119e-15
17.93362702 31.2 -1.544351622
18.72027521 31.2 -3.248275886
20.30650589 31.2 -5.352178852
20.71396943 31.2 -7.411576775
21.82003159 31.2 -9.994309442
21.75217478 31.2 -12.32245481
20.61473257 31.2 -14.14329527
20.87128224 31.2 -17.12861867
20.04046311 31.2 -19.55453498
18.94201245 31.2 -21.95905655
16.98813787 31.2 -23.50325875
14.90897958 31.2 -24.87412969
12.28125468 31.2 -25.16288504
10.07706102 31.2 -26.12379837
8.077070992 31.2 -27.85248506
5.657619338 31.2 -28.44277313
3.086221804 31.2 -27.82939516
0.6626131701 31.2 -26.9918681
-1.594339144 31.2 -25.95107094
-3.814992336 31.2 -25.71858926
-6.007510815 31.2 -25.29643876
-8.15572525 31.2 -24.6877327
-10.24379304 31.2 -23.89696014
-12.72771189 31.2 -23.81187414
-14.72377469 31.2 -22.63206705
-17.22648454 31.2 -22.07369997
-20.41802993 31.2 -21.97962815
-21.48758264 31.2 -19.47520969
-22.28343333 31.2 -16.95430916
-23.65589983 31.2 -14.97993336
-24.85390937 31.2 -12.89508391
-25.86862691 31.2 -10.71513611
-26.69256913 31.2 -8.456166581
-26.34395751 31.2 -5.915733484
-24.77256589 31.2 -3.364517713
-23.97109095 31.2 -1.177624184
-21.98509246 31.2 0.8097589047
-20.84207023 31.2 2.570624179
-18.58803004 31.2 3.935116148
-19.13880671 31.2 5.805693545
-17.64161553 31.2 7.055026685
-16.97126172 31.2 8.542615263
-14.47303828 31.2 8.918024606
-14.45773557 31.2 10.72258748
-11.98618231 31.2 10.59865244
-11.03264872 31.2 11.58795333
-9.372892322 31.2 11.71105843
-7.222413029 31.2 10.80910496
-6.268389037 31.2 11.38891122
-4.862895768 31.2 10.97051707
-3.578413214 31.2 10.40168058
-2.915762159 31.2 11.64037504
-1.90629772 31.2 11.84761702
-0.8827747632 31.2 11.96748548
0.1472584594 30.8 11.99909642
1.176205684 30.8 11.94221672
2.013438768 30.8 10.81416036
3.467265847 30.8 12.52908886
4.181024163 30.8 11.24806814
5.130661121 30.8 10.84787152
6.545998988 30.8 11.23164713
8.06131468 30.8 11.44618738
9.657473143 30.8 11.47750898
10.60660172 30.8 10.60660172
12.24267625 30.8 10.30130469
17.16928108 30.8 12.09197202
25.91918568 30.8 15.10615151
32.54361455 30.8 15.39198336
35.61888245 30.8 13.23990985
30.84083411 30.8 8.534808239
20.64521524 30.8 3.843837647
18.90850981 30.8 1.862325666
17.99864463 30.8 0.2208876891
19.94580913 30.8 -1.471291272
18.75872694 30.8 -3.018304723
21.34068757 30.8 -5.345563958
21.74896848 30.8 -7.48213672
22.85524389 30.8 -10.13103285
21.90175235 30.8 -12.0545943
21.61820992 30.8 -14.44482606
20.29916794 30.8 -16.24634669
20.27891832 30.8 -19.30713525
18.54764177 30.8 -20.97581905
16.67958053 30.8 -22.48981088
15.2131008 30.8 -24.6893006
12.58911723 30.8 -25.01028043
10.76819862 30.8 -26.92667633
7.837686286 30.8 -25.83738906
6.00622991 30.8 -28.37120375
3.549909581 30.8 -28.7819065
0.9937950194 30.8 -26.98170438
-1.275759533 30.8 -25.96868186
-3.63367913 30.8 -26.75437116
-5.696632244 30.8 -25.36825538
-7.852154682 30.8 -24.78595705
-9.567085809 30.8 -23.09698831
-12.4345452 30.8 -23.96626975
-14.44493574 30.8 -22.81104626
-15.74328708 30.8 -20.69175952
-18.80365074 30.8 -20.74663151
-21.24697388 30.8 -19.73742894
-22.8620464 30.8 -17.84171613
-24.30851646 30.8 -15.81442466
-24.6937954 30.8 -13.19910863
-23.89696014 30.8 -10.24379304
-25.63726088 30.8 -8.469406991
-26.26937871 30.8 -6.238568924
-24.72941275 30.8 -3.668261861
-23.95483471 30.8 -1.471697671
-21.99337401 30.8 0.5399070275
-20.87204637 30.8 2.314666353
-19.61570561 30.8 3.90180644
-19.20861039 30.8 5.570393788
-18.65985598 30.8 7.197900731
-16.17614038 30.8 7.895092294
-15.43911498 30.8 9.253849395
-13.77777237 30.8 9.958563577
-12.87255039 30.8 11.10393833
-10.47564374 30.8 10.73596238
-9.515899262 30.8 11.5951568
-8.485977162 30.8 12.36883954
-6.900574691 30.8 12.18121788
-5.413584281 30.8 11.81918378
-4.042678241 30.8 11.29852878
-3.313253575 30.8 12.57069412
-1.880580776 30.8 10.83805407
-1.029567748 30.8 11.95575135
0 30.4 13
1.029567748 30.4 11.95575135
2.051542665 30.4 11.82333171
3.313253575 30.4 12.57069412
4.042678241 30.4 11.29852878
5.830013841 30.4 12.72835176
6.407676499 30.4 11.31113088
7.35451354 30.4 10.71966094
8.881505978 30.4 10.82214635
10.47564374 30.4 10.73596238
12.11534154 30.4 10.45076549
18.64051556 30.4 13.47335072
25.7318583 30.4 15.42308233
33.25095523 30.4 16.22880083
37.31971195 30.4 14.39580146
33.61506818 30.4 9.748189128
22.55806145 30.4 4.487077406
18.88423243 30.4 2.094221939
18.99427756 30.4 0.4662833419
18.96424415 30.4 -1.16509399
19.7835302 30.4 -2.934609489
21.40467895 30.4 -5.083278382
21.83914815 30.4 -7.214680029
22.05873244 30.4 -9.455808961
22.04803161 30.4 -11.78491842
22.63206705 30.4 -14.72377469
21.28535355 30.4 -16.61125295
19.78166534 30.4 -18.37622694
18.80365074 30.4 -20.74663151
17.5598202 30.4 -23.07927023
15.51493098 30.4 -24.50075339
12.89508391 30.4 -24.85390937
11.09781954 30.4 -26.79250644
8.456166581 30.4 -26.69256913
