# .PCD v0.7 - Point Cloud Data file format
VERSION 0.7
FIELDS x y z
SIZE 4 4 4
TYPE F F F
COUNT 1 1 1
WIDTH 1625
HEIGHT 1
VIEWPOINT 0 0 0 1 0 0 0
POINTS 1625
DATA ascii
-22.05873244 63.2 -9.455808961
-21.83914815 63.2 -7.214680029
-21.40467895 63.2 -5.083278382
-22.75105973 63.2 -3.374800912
-21.95859848 63.2 -1.349056199
-21.99337401 63.2 0.5399070275
-20.87204637 63.2 2.314666353
-21.57727617 63.2 4.291987084
-20.16904091 63.2 5.848913477
-21.45883437 63.2 8.27758584
-19.77083825 63.2 9.649557248
-18.87002942 63.2 11.31026037
-18.64051556 63.2 13.47335072
-17.41580347 63.2 15.02297539
-16.06265374 63.2 16.46180898
-14.59104554 63.2 17.77924043
-12.44609984 63.2 18.14096466
-10.84376023 63.2 19.1419138
-9.161450322 63.2 20.00169563
-7.411576775 63.2 20.71396943
-5.607044511 63.2 21.27348236
-3.932123441 63.2 22.66138577
-1.973338184 63.2 22.91519008
0 62.8 21
1.801743559 62.8 20.92256486
3.419237775 62.8 19.70555285
5.352178852 62.8 20.30650589
6.400907214 62.8 17.88933724
8.328591202 62.8 18.18335966
9.857963845 62.8 17.40173982
10.7489044 62.8 15.66719675
11.41907911 62.8 13.91418816
11.87239624 62.8 12.16742403
12.11534154 62.8 10.45076549
12.15685797 62.8 8.786967862
13.72365776 62.8 8.225643907
13.48011699 62.8 6.579243578
13.99489198 62.8 5.398425548
13.44602727 62.8 3.899275651
13.73099393 62.8 2.731264508
15.90251152 62.8 1.763555317
13.99578346 62.8 0.3435771993
14.97177169 62.8 -0.9198110445
15.82682416 62.8 -2.347687591
13.62115933 62.8 -3.234813516
15.19245089 62.8 -5.018907846
13.78670778 62.8 -5.909880601
13.22881897 62.8 -7.070951052
13.41159529 62.8 -8.725199815
13.40188927 62.8 -10.45893704
12.45512262 62.8 -11.57021696
12.08806119 62.8 -13.33712026
11.50470979 62.8 -15.12090119
10.16495478 62.8 -16.05221774
9.67131293 62.8 -18.64043203
8.801718944 62.8 -21.24922925
7.248142784 62.8 -22.87934497
5.477531004 62.8 -24.39255325
3.63367913 62.8 -26.75437116
1.275759533 62.8 -25.96868186
-0.9569877965 62.8 -25.982382
-3.06026688 62.8 -24.81198836
-4.970673029 62.8 -23.4796169
-7.547401609 62.8 -24.88044873
-8.911612655 62.8 -22.28414593
-11.24028324 62.8 -22.33060753
-13.63933175 62.8 -22.13523502
-16.67958053 62.8 -22.48981088
-17.88522599 62.8 -20.22668265
-19.55467124 62.8 -18.61759471
-20.29916794 62.8 -16.24634669
-20.78674031 62.8 -13.88925583
-22.77782245 62.8 -12.53677807
-22.85524389 62.8 -10.13103285
-21.74896848 62.8 -7.48213672
-23.28075008 62.8 -5.831524318
-23.69523404 62.8 -3.81259544
-21.94039005 62.8 -1.618420399
-21.99834344 62.8 0.2699738423
-21.89406399 62.8 2.156377087
-21.62832072 62.8 4.026877535
-21.20307345 62.8 5.867680664
-20.62145826 62.8 7.665210965
-19.88776445 62.8 9.406212055
-19.87137569 62.8 11.58138283
-17.98686589 62.8 12.66778021
-16.06851258 62.8 13.5204624
-16.26345597 62.8 16.26345597
-14.80812549 62.8 17.59884711
-13.2435884 62.8 18.8044507
-11.07784444 62.8 19.00740283
-8.978656962 62.8 18.98377516
-8.013629646 62.8 21.55879727
-5.867680664 62.8 21.20307345
-4.026877535 62.8 21.62832072
-2.058359947 62.8 20.89887926
-0.2699738423 62.8 21.99834344
1.691984963 62.4 22.9376805
3.494879153 62.4 21.7206312
5.102583778 62.4 20.37065632
7.156826428 62.4 20.80336116
8.510067594 62.4 19.19840487
9.643675442 62.4 17.52140188
10.55583443 62.4 15.79792263
9.99775181 62.4 12.49179566
11.72218926 62.4 12.31220041
11.98618231 62.4 10.59865244
12.8513205 62.4 9.531188872
13.62168309 62.4 8.393434923
14.29158882 62.4 7.193781274
14.85609729 62.4 5.941075103
13.3971647 62.4 4.063985482
14.67476056 62.4 3.106670643
13.89471348 62.4 1.713749453
14.98983577 62.4 0.5521083441
14.98193184 62.4 -0.7360151149
13.8726369 62.4 -1.884129919
14.63553195 62.4 -3.286518602
15.25289665 62.4 -4.832095189
13.85819299 62.4 -5.740251485
13.31459431 62.4 -6.908080664
13.51765704 62.4 -8.559961918
12.73339047 62.4 -9.688176662
14.07807138 62.4 -12.75962014
12.25081796 62.4 -13.18777689
11.07416863 62.4 -14.1902357
10.36117478 62.4 -15.92626941
9.899331473 62.4 -18.52034655
8.667824881 62.4 -20.22050474
7.214680029 62.4 -21.83914815
6.007510815 62.4 -25.29643876
3.814992336 62.4 -25.71858926
1.65565988 62.4 -26.94918905
-0.6380719416 62.4 -25.99216929
-2.755555182 62.4 -24.84767425
-4.87725805 62.4 -24.51963201
-6.684472545 62.4 -23.05033247
-8.997375913 62.4 -23.32481997
-10.52678972 62.4 -21.56818718
-13.36667135 62.4 -22.30094386
-15.23074429 62.4 -21.07188715
-17.63566676 62.4 -20.44463886
-19.32473228 62.4 -18.85615873
-21.64429269 62.4 -17.76301196
-21.43932187 62.4 -14.70902708
-20.88208779 62.4 -11.82955661
-22.72919958 62.4 -10.410739
-21.6555135 62.4 -7.748466628
-23.20743531 62.4 -6.116775831
-22.66138577 62.4 -3.932123441
-22.91519008 62.4 -1.973338184
-23 62.4 -4.225031457e-15
-22.91519008 62.4 1.973338184
-21.67610813 62.4 3.761161553
-22.24045883 62.4 5.861910171
-21.6555135 62.4 7.748466628
-20.00169563 62.4 9.161450322
-19.1419138 62.4 10.84376023
-17.31637536 62.4 11.88036803
-16.23321952 62.4 13.32225897
-15.74607816 62.4 15.36427749
-15.02297539 62.4 17.41580347
-12.88755286 62.4 17.83005836
-11.31026037 62.4 18.87002942
-10.08817349 62.4 20.66951271
-7.917690804 62.4 20.52584157
-6.405952856 62.4 22.08990195
-4.487077406 62.4 22.55806145
-2.42488856 62.4 21.86595334
-0.5399070275 62.4 21.99337401
1.349056199 62 21.95859848
3.374800912 62 22.75105973
4.621162166 62 19.45879904
6.587316548 62 19.94009179
7.879840801 62 18.38227703
8.956538 62 16.75650402
10.36117478 62 15.92626941
11.68940022 62 14.97858212
10.88961596 62 11.72246835
13.33712026 62 12.08806119
13.52922738 62 10.2936877
13.51765704 62 8.559961918
13.31459431 62 6.908080664
14.78207252 62 6.122934918
16.20620269 62 5.134101138
14.63553195 62 3.286518602
13.8726369 62 1.884129919
14.98193184 62 0.7360151149
14.98983577 62 -0.5521083441
15.87967255 62 -1.958570803
14.67476056 62 -3.106670643
15.31104537 62 -4.644554836
14.85609729 62 -5.941075103
14.29158882 62 -7.193781274
14.47303828 62 -8.918024606
14.45773557 62 -10.72258748
14.2335915 62 -12.58589977
12.41172981 62 -13.03644749
11.87233027 62 -14.83400734
11.11140466 62 -16.62939225
10.12585921 62 -18.39747198
9.320550222 62 -21.02682438
7.807447012 62 -22.69457581
6.317484677 62 -25.22081258
4.28916987 62 -26.65713829
2.059807781 62 -27.92413279
-0.3313315337 62 -26.99796695
-2.548445649 62 -25.87480289
-4.575997199 62 -24.57763719
-6.667818937 62 -24.09440164
-8.710467006 62 -23.4334753
-10.68887734 62 -22.59973233
-13.09199798 62 -22.46329426
-15.54682117 62 -22.07478996
-16.73962012 62 -19.89434891
-19.79898987 62 -19.79898987
-21.42468344 62 -18.0272832
-22.07478996 62 -15.54682117
-22.46329426 62 -13.09199798
-23.50372162 62 -11.11643243
-22.49613629 62 -8.362048326
-24.09440164 62 -6.667818937
-23.5945317 62 -4.392957311
-23.88443344 62 -2.352411368
-23.99819284 62 -0.2945169189
-23.93497096 62 1.765549526
-22.70793262 62 3.653737297
-21.34068757 62 5.345563958
-20.80336116 62 7.156826428
-20.11261463 62 8.915308908
-19.27354207 62 10.60804299
-17.46086186 62 11.66697489
-17.17621903 62 13.74690874
-15.93343582 62 15.16989198
-13.91073133 62 15.73186428
-12.50968539 62 16.86735816
-11.54097302 62 18.72981425
-10.34106058 62 20.54415893
-8.911612655 62 22.28414593
-6.676547577 62 22.00962772
-4.763561652 62 22.50129953
-2.81544553 62 22.8270293
-0.8097589047 62 21.98509246
1.12855651 61.6 22.97229549
2.960775587 61.6 21.79985798
4.820227283 61.6 21.46544686
6.644130885 61.6 20.97273289
8.03635208 61.6 19.40147018
9.67131293 61.6 18.64043203
10.6999524 61.6 16.8970713
10.89919875 61.6 14.32506428
12.08806119 61.6 13.33712026
12.45512262 61.6 11.57021696
12.61354284 61.6 9.843705449
13.41159529 61.6 8.725199815
13.22881897 61.6 7.070951052
13.78670778 61.6 5.909880601
14.24292271 61.6 4.705226106
14.59409928 61.6 3.465871624
14.83764765 61.6 2.200957117
14.97177169 61.6 0.9198110445
14.99548228 61.6 -0.3681184278
14.90860455 61.6 -1.653333109
15.69256449 61.6 -3.121445152
15.36688831 61.6 -4.45631503
13.99489198 61.6 -5.398425548
14.37879145 61.6 -7.017859817
13.72365776 61.6 -8.225643907
13.77777237 61.6 -9.958563577
13.62975924 61.6 -11.75711117
13.26914874 61.6 -13.59888568
12.68786568 61.6 -15.46020907
10.7489044 61.6 -15.66719675
11.33665842 61.6 -20.0120008
9.161450322 61.6 -20.00169563
8.422246335 61.6 -23.53860163
6.116775831 61.6 -23.20743531
4.786932885 61.6 -27.58777399
2.316527433 61.6 -26.90044053
3.306546358e-15 61.6 -27
-2.230730121 61.6 -25.90412792
-4.274047219 61.6 -24.63194106
-6.116775831 61.6 -23.20743531
-8.422246335 61.6 -23.53860163
-10.410739 61.6 -22.72919958
-13.30825119 61.6 -23.49234876
-14.70902708 61.6 -21.43932187
-17.12861867 61.6 -20.87128224
-20.25291123 61.6 -20.75619393
-21.2018477 61.6 -18.2888396
-22.69280155 61.6 -16.40234001
-22.30094386 61.6 -13.36667135
-22.46686164 61.6 -10.96540596
-24.25781277 61.6 -9.35727095
-23.05033247 61.6 -6.684472545
-23.53884673 61.6 -4.682167728
-23.85376728 61.6 -2.645332975
-22.99307283 61.6 -0.564448256
-22.9567166 61.6 1.410376935
-21.76188322 61.6 3.228070438
-21.40467895 61.6 5.083278382
-20.88961997 61.6 6.900998289
-20.22050474 61.6 8.667824881
-18.52034655 61.6 9.899331473
-19.27916823 61.6 12.54247473
-18.13196784 61.6 14.15032658
-16.85104825 61.6 15.65382295
-13.4311791 61.6 14.81902251
-13.32124291 61.6 17.5084119
-12.30494526 61.6 19.431632
-10.59239035 61.6 20.41571127
-8.801718944 61.6 21.24922925
-6.946136834 61.6 21.92603893
-5.258429764 61.6 23.41685112
-3.095356296 61.6 22.79076061
-1.079488835 61.6 21.97350004
0.8097589047 61.2 21.98509246
2.570624179 61.2 20.84207023
4.3493389 61.2 20.54466479
6.3862629 61.2 21.05268739
7.797661073 61.2 19.49862769
8.992226593 61.2 17.86448602
9.967203971 61.2 16.17574867
10.72258748 61.2 14.45773557
11.923484 61.2 13.4844551
12.31220041 61.2 11.72218926
13.27253289 61.2 10.6226113
13.3035138 61.2 8.889123728
13.14105141 61.2 7.232756581
14.62735609 61.2 6.483861024
14.18410988 61.2 4.879654382
15.52050005 61.2 3.887682878
14.80952127 61.2 2.38287215
15.95664731 61.2 1.177033018
14.99887053 61.2 -0.1840730743
14.9277709 61.2 -1.470257105
16.71279329 61.2 -3.111678095
14.45664099 61.2 -4.000691362
14.06008518 61.2 -5.226280204
15.36781798 61.2 -7.268436588
14.68753855 61.2 -8.560152523
14.71652664 61.2 -10.36454745
13.77301078 61.2 -11.58896777
14.14213562 61.2 -14.14213562
12.23279931 61.2 -14.53817805
12.09197202 61.2 -17.16928108
10.57430606 61.2 -18.14342998
9.406212055 61.2 -19.88776445
8.362048326 61.2 -22.49613629
6.667818937 61.2 -24.09440164
5.125116863 61.2 -27.52695365
2.744479929 61.2 -27.86517235
0.3313315337 61.2 -26.99796695
-1.912678654 61.2 -25.92955187
-4.130311727 61.2 -25.66983687
-5.831524318 61.2 -23.28075008
-7.807447012 61.2 -22.69457581
-9.725791536 61.2 -21.94103414
-12.0545943 61.2 -21.90175235
-15.00039629 61.2 -22.44967953
-15.6214872 61.2 -19.51843071
-18.61759471 61.2 -19.55467124
-22.47409184 61.2 -19.87247333
-21.68660335 61.2 -16.08388122
-22.13523502 61.2 -13.63933175
-22.33060753 61.2 -11.24028324
-22.28414593 61.2 -8.911612655
-23.92350839 61.2 -7.257116931
-23.4796169 61.2 -4.970673029
-22.8270293 61.2 -2.81544553
-22.98441485 61.2 -0.8465661277
-22.97229549 61.2 1.12855651
-22.79076061 61.2 3.095356296
-22.44114899 61.2 5.039328524
-21.92603893 61.2 6.946136834
-20.32534972 61.2 8.419035512
-20.41571127 61.2 10.59239035
-18.58677844 61.2 11.76994764
-16.712575 61.2 12.71573187
-15.55997363 61.2 14.10273805
-14.29262095 61.2 15.38573971
-13.53509499 61.2 17.34362141
-11.45182476 61.2 17.60271882
-10.37072821 61.2 19.40226782
-9.061816921 61.2 21.13961859
-7.52836177 61.2 22.78867633
-5.31433649 61.2 22.3776189
-3.374800912 61.2 22.75105973
-1.287735462 61.2 20.96048037
0.515365799 60.8 20.99367519
2.314666353 60.8 20.87204637
4.096896762 60.8 20.59649089
5.848913477 60.8 20.16904091
7.917690804 60.8 20.52584157
9.210941009 60.8 18.87216378
10.28205488 60.8 17.1545722
10.54436143 60.8 14.58822957
11.75711117 60.8 13.62975924
12.16742403 60.8 11.87239624
13.14117771 60.8 10.78468583
14.01801815 60.8 9.617440783
13.92139186 60.8 7.886371076
14.54668773 60.8 6.662872962
14.12316098 60.8 5.053347801
14.50464707 60.8 3.822984894
15.76444228 60.8 2.73539022
15.94100179 60.8 1.372756998
15 60.8 9.184850994e-16
14.94468918 60.8 -1.286959685
14.77916464 60.8 -2.564428331
15.47162354 60.8 -4.077850554
15.06470504 60.8 -5.390237654
14.54668773 60.8 -6.662872962
15.66156584 60.8 -8.87216746
14.01801815 60.8 -9.617440783
14.68719861 60.8 -12.0534724
12.88315486 60.8 -12.57077249
12.41028402 60.8 -14.38696808
11.13015929 60.8 -15.39868677
10.79615763 60.8 -18.01230081
10.08817349 60.8 -20.66951271
8.637480877 60.8 -22.39182717
6.962992235 60.8 -24.01076299
5.267438694 60.8 -26.48120257
3.086221804 60.8 -27.82939516
0.6871543986 60.8 -27.99156692
-1.594339144 60.8 -25.95107094
-3.814992336 60.8 -25.71858926
-5.776452707 60.8 -24.32349881
-7.84204351 60.8 -23.73820451
-9.455808961 60.8 -22.05873244
-12.25631516 60.8 -22.92995287
-14.1784497 60.8 -21.79384234
-17.22648454 60.8 -22.07369997
-19.05682794 60.8 -20.51431961
-20.00568038 60.8 -18.13209178
-21.48759642 60.8 -16.34879812
-22.81104626 60.8 -14.44493574
-23.07863013 60.8 -11.97400648
-24.02086785 60.8 -9.949769241
-22.87934497 60.8 -7.248142784
-22.44114899 60.8 -5.039328524
-23.78166325 60.8 -3.229937004
-23.97109095 60.8 -1.177624184
-21.98509246 60.8 0.8097589047
-23.81950883 60.8 2.937856205
-22.50129953 60.8 4.763561652
-22.00962772 60.8 6.676547577
-21.35563985 60.8 8.540295461
-19.65093463 60.8 9.891449252
-18.72981425 60.8 11.54097302
-16.86735816 60.8 12.50968539
-17.23013707 60.8 15.23556288
-14.48035144 60.8 15.20918874
-13.12204925 60.8 16.3954818
-11.66697489 60.8 17.46086186
-10.60804299 60.8 19.27354207
-9.320550222 60.8 21.02682438
-7.48213672 60.8 21.74896848
-5.345563958 60.8 21.34068757
-3.33602101 60.8 20.73332978
-1.691984963 60.8 22.9376805
0.257702304 60.4 20.99841874
2.058359947 60.4 20.89887926
3.843837647 60.4 20.64521524
5.600967907 60.4 20.23929738
7.316792285 60.4 19.68411925
8.551101869 60.4 18.07978586
10.07076767 60.4 17.27945712
10.94035564 60.4 15.53411145
11.58896777 60.4 13.77301078
12.02081528 60.4 12.02081528
13.00784352 60.4 10.94513623
13.89894182 60.4 9.788739254
12.95959284 60.4 7.553075756
13.5598394 60.4 6.413326401
14.99742419 60.4 5.574698884
14.45664099 60.4 4.000691362
14.74658231 60.4 2.745598319
14.9277709 60.4 1.470257105
14.99887053 60.4 0.1840730743
15.95664731 60.4 -1.177033018
15.79682269 60.4 -2.541730293
14.5504688 60.4 -3.644702699
15.12971721 60.4 -5.204964675
14.62735609 60.4 -6.483861024
14.8931916 60.4 -8.197124125
14.96645302 60.4 -10.00026419
14.05327011 60.4 -11.24747079
13.76069458 60.4 -13.10127035
13.24831555 60.4 -14.98272789
13.1053847 60.4 -17.67056569
11.01638334 60.4 -17.87845906
9.891449252 60.4 -19.65093463
8.911612655 60.4 -22.28414593
7.547401609 60.4 -24.88044873
5.592007157 60.4 -26.41456901
3.427498906 60.4 -27.78942697
1.030602242 60.4 -27.98102677
-1.275759533 60.4 -25.96868186
-3.499098421 60.4 -25.76346852
-5.696632244 60.4 -25.36825538
-7.550148733 60.4 -23.83265101
-9.567085809 60.4 -23.09698831
-11.97400648 60.4 -23.07863013
-13.90993812 60.4 -21.9661927
-16.95430916 60.4 -22.28343333
-19.47520969 60.4 -21.48758264
-20.51431961 60.4 -19.05682794
-21.28535355 60.4 -16.61125295
-22.63206705 60.4 -14.72377469
-22.92995287 60.4 -12.25631516
-23.89696014 60.4 -10.24379304
-22.78867633 60.4 -7.52836177
-23.35055885 60.4 -5.545394599
-25.71858926 60.4 -3.814992336
-23.95483471 60.4 -1.471697671
-23.99277165 60.4 0.5889894845
-22.85986031 60.4 2.535110768
-23.53884673 60.4 4.682167728
-21.12947143 60.4 6.127433166
-22.39182717 60.4 8.637480877
-21.56818718 60.4 10.52678972
-18.87002942 60.4 11.31026037
-17.83005836 60.4 12.88755286
-16.65859462 60.4 14.36980254
-15.36427749 60.4 15.74607816
-13.95665225 60.4 17.00622997
-11.88036803 60.4 17.31637536
-10.84376023 60.4 19.1419138
-8.328591202 60.4 18.18335966
-7.748466628 60.4 21.6555135
-6.116775831 60.4 23.20743531
-3.932123441 60.4 22.66138577
-1.887540872 60.4 21.91887747
0 60 22
1.801743559 60 20.92256486
3.590199664 60 20.69083049
5.352178852 60 20.30650589
7.074686921 60 19.77242537
8.745020762 60 19.09252764
9.857963845 60 17.40173982
10.7489044 60 15.66719675
11.41907911 60 13.91418816
12.57077249 60 12.88315486
12.87255039 60 11.10393833
12.96731517 60 9.372765719
13.72365776 60 8.225643907
14.37879145 60 7.017859817
14.92788478 60 5.758320585
15.36688831 60 4.45631503
15.69256449 60 3.121445152
15.90251152 60 1.763555317
14.99548228 60 0.3681184278
14.97177169 60 -0.9198110445
15.82682416 60 -2.347687591
16.53997919 60 -3.927987841
15.19245089 60 -5.018907846
14.70582163 60 -6.303872641
14.99266149 60 -8.013744526
14.24981999 60 -9.270524803
13.40188927 60 -10.45893704
13.92043116 60 -12.93141896
14.10273805 60 -15.55997363
12.11022083 60 -15.91673809
11.76994764 60 -18.58677844
10.59239035 60 -20.41571127
9.184402377 60 -22.17310878
7.852154682 60 -24.78595705
5.915733484 60 -26.34395751
3.768259838 60 -27.74527379
1.324827207 60 -26.96747732
-0.9569877965 60 -25.982382
-3.30508823 60 -26.79694743
-4.970673029 60 -23.4796169
-6.966832254 60 -22.96656806
-9.282929849 60 -23.21265201
-11.24028324 60 -22.33060753
-13.11474207 60 -21.28387983
-16.08388122 60 -21.68660335
-18.54764177 60 -20.97581905
-20.27891832 60 -19.30713525
-21.8606424 60 -17.49606567
-23.28114914 60 -15.55596652
-22.77782245 60 -12.53677807
-24.6836634 60 -10.94151548
-23.64018313 60 -8.132757304
-23.28075008 60 -5.831524318
-22.70793262 60 -3.653737297
-23.93497096 60 -1.765549526
-23.99819284 60 0.2945169189
-23.88443344 60 2.352411368
-22.61142621 60 4.209917423
-22.16684951 60 6.134393422
-19.68411925 60 7.316792285
-20.79175374 60 9.833767149
-19.00740283 60 11.07784444
-17.98686589 60 12.66778021
-17.59884711 60 14.80812549
-16.26345597 60 16.26345597
-12.87663086 60 15.30334531
-13.81939659 60 19.62203552
-11.07784444 60 19.00740283
-9.406212055 60 19.88776445
-7.665210965 60 20.62145826
-6.134393422 60 22.16684951
-4.209917423 60 22.61142621
-2.156377087 60 21.89406399
-0.257702304 60 20.99841874
1.618420399 59.6 21.94039005
3.494879153 59.6 21.7206312
5.102583778 59.6 20.37065632
7.156826428 59.6 20.80336116
8.510067594 59.6 19.19840487
9.643675442 59.6 17.52140188
11.11140466 59.6 16.62939225
11.87233027 59.6 14.83400734
13.10127035 59.6 13.76069458
11.98618231 59.6 10.59865244
14.45773557 59.6 10.72258748
13.62168309 59.6 8.393434923
14.29158882 59.6 7.193781274
14.85609729 59.6 5.941075103
15.31104537 59.6 4.644554836
15.65307793 59.6 3.313782019
17.86463162 59.6 2.203392154
14.98983577 59.6 0.5521083441
15.9807273 59.6 -0.7850827892
14.86353953 59.6 -2.018710628
16.58693621 59.6 -3.724721083
15.25289665 59.6 -4.832095189
15.70595205 59.6 -6.50561835
15.08987355 59.6 -7.829158086
14.36251061 59.6 -9.094959538
15.12090119 59.6 -11.50470979
14.81902251 59.6 -13.4311791
12.93141896 59.6 -13.92043116
12.30463181 59.6 -15.76692855
11.99714975 59.6 -18.44094352
11.31352168 59.6 -21.16611034
9.455808961 59.6 -22.05873244
8.15572525 59.6 -24.6877327
6.238568924 59.6 -26.26937871
4.108453285 59.6 -27.69694228
1.65565988 59.6 -26.94918905
-0.6626131701 59.6 -26.9918681
-2.975999597 59.6 -26.83548819
-4.87725805 59.6 -24.51963201
-6.962992235 59.6 -24.01076299
-8.997375913 59.6 -23.32481997
-11.4040222 59.6 -23.36553611
-13.36667135 59.6 -22.30094386
-15.81654215 59.6 -21.88234435
-18.2888396 59.6 -21.2018477
-20.04046311 59.6 -19.55453498
-21.64429269 59.6 -17.76301196
-23.08850048 59.6 -15.8404907
-23.49234876 59.6 -13.30825119
-22.72919958 59.6 -10.410739
-24.48014569 59.6 -8.759136188
-24.17441178 59.6 -6.37164149
-24.63194106 59.6 -4.274047219
-23.91150269 59.6 -2.059135496
-24 59.6 -4.408728477e-15
-22.91519008 59.6 1.973338184
-22.66138577 59.6 3.932123441
-21.27348236 59.6 5.607044511
-21.6555135 59.6 7.748466628
-20.91086361 59.6 9.577879882
-19.1419138 59.6 10.84376023
-18.14096466 59.6 12.44609984
-17.00622997 59.6 13.95665225
-15.74607816 59.6 15.36427749
-13.7166297 59.6 15.90138578
-12.30175501 59.6 17.01960116
-11.82436312 59.6 19.72775803
-10.08817349 59.6 20.66951271
-8.27758584 59.6 21.45883437
-6.684472545 59.6 23.05033247
-4.682167728 59.6 23.53884673
-2.42488856 59.6 21.86595334
-0.5399070275 59.6 21.99337401
1.287735462 59.2 20.96048037
3.228070438 59.2 21.76188322
5.083278382 59.2 21.40467895
6.900998289 59.2 20.88961997
8.273832841 59.2 19.30139089
10.37072821 59.2 19.40226782
10.36117478 59.2 15.92626941
11.68940022 59.2 14.97858212
12.25081796 59.2 13.18777689
14.07807138 59.2 12.75962014
13.52922738 59.2 10.2936877
14.36251061 59.2 9.094959538
14.20223393 59.2 7.368619375
15.70595205 59.2 6.50561835
16.20620269 59.2 5.134101138
13.65982982 59.2 3.067417362
15.85444217 59.2 2.153291336
14.98193184 59.2 0.7360151149
15.98915815 59.2 -0.5889155671
14.88719302 59.2 -1.836160128
15.65307793 59.2 -3.313782019
15.31104537 59.2 -4.644554836
15.78460337 59.2 -6.312392297
15.18481312 59.2 -7.643392604
14.47303828 59.2 -8.918024606
15.2609431 59.2 -11.31828679
14.98272789 59.2 -13.24831555
13.79081089 59.2 -14.48494166
12.49718976 59.2 -15.61474457
12.22254513 59.2 -18.29233147
11.09022676 59.2 -20.14961217
9.725791536 59.2 -21.94103414
8.458067596 59.2 -24.58579046
6.560464857 59.2 -26.19084384
4.448028013 59.2 -27.64443971
2.133372344 59.2 -28.92142324
-0.3313315337 59.2 -26.99796695
-2.548445649 59.2 -25.87480289
-4.759037087 59.2 -25.56074267
-6.667818937 59.2 -24.09440164
-8.362048326 59.2 -22.49613629
-10.68887734 59.2 -22.59973233
-13.59553636 59.2 -23.32726712
-15.54682117 59.2 -22.07478996
-18.0272832 59.2 -21.42468344
-19.79898987 59.2 -19.79898987
-21.42468344 59.2 -18.0272832
-22.07478996 59.2 -15.54682117
-22.46329426 59.2 -13.09199798
-22.59973233 59.2 -10.68887734
-24.37081431 59.2 -9.058885686
-25.05817771 59.2 -6.934531694
-24.57763719 59.2 -4.575997199
-23.88443344 59.2 -2.352411368
-23.99819284 59.2 -0.2945169189
-22.9376805 59.2 1.691984963
-21.7206312 59.2 3.494879153
-21.34068757 59.2 5.345563958
-20.80336116 59.2 7.156826428
-19.19840487 59.2 8.510067594
-19.27354207 59.2 10.60804299
-18.29233147 59.2 12.22254513
-17.17621903 59.2 13.74690874
-15.93343582 59.2 15.16989198
-13.91073133 59.2 15.73186428
-13.701084 59.2 18.47377322
-11.54097302 59.2 18.72981425
-10.34106058 59.2 20.54415893
-8.540295461 59.2 21.35563985
-6.3862629 59.2 21.05268739
-4.556450276 59.2 21.52298216
-2.81544553 59.2 22.8270293
-0.8465661277 59.2 22.98441485
1.079488835 58.8 21.97350004
2.960775587 58.8 21.79985798
4.820227283 58.8 21.46544686
6.946136834 58.8 21.92603893
8.03635208 58.8 19.40147018
9.67131293 58.8 18.64043203
10.16495478 58.8 16.05221774
10.89919875 58.8 14.32506428
12.75962014 58.8 14.07807138
12.45512262 58.8 11.57021696
13.40188927 58.8 10.45893704
14.24981999 58.8 9.270524803
14.11074023 58.8 7.542347789
15.62493548 58.8 6.697864681
15.19245089 58.8 5.018907846
15.56703924 58.8 3.696929732
15.82682416 58.8 2.347687591
15.96988981 58.8 0.9811317808
16.99487992 58.8 -0.4172008849
14.90860455 58.8 -1.653333109
14.71177921 58.8 -2.92635483
16.32731883 58.8 -4.73483472
15.86087758 58.8 -6.118215621
16.17614038 58.8 -7.895092294
15.43911498 58.8 -9.253849395
14.58822957 58.8 -10.54436143
14.38696808 58.8 -12.41028402
13.96752499 58.8 -14.31461651
13.95665225 58.8 -17.00622997
11.88036803 58.8 -17.31637536
10.84376023 58.8 -19.1419138
9.994309442 58.8 -21.82003159
8.422246335 58.8 -23.53860163
6.881372809 58.8 -26.10836472
4.786932885 58.8 -27.58777399
2.402324746 58.8 -27.89675314
3.306546358e-15 58.8 -27
-2.144932809 58.8 -24.9078153
-4.274047219 58.8 -24.63194106
-6.37164149 58.8 -24.17441178
-8.422246335 58.8 -23.53860163
-10.410739 58.8 -22.72919958
-13.30825119 58.8 -23.49234876
-14.70902708 58.8 -21.43932187
-17.76301196 58.8 -21.64429269
-20.25291123 58.8 -20.75619393
-21.2018477 58.8 -18.2888396
-23.50325875 58.8 -16.98813787
-23.15867247 58.8 -13.88077409
-23.36553611 58.8 -11.4040222
-25.19080557 58.8 -9.717165986
-24.01076299 58.8 -6.962992235
-25.50041729 58.8 -5.072348372
-23.85376728 58.8 -2.645332975
-23.99277165 58.8 -0.5889894845
-22.9567166 58.8 1.410376935
-23.74023624 58.8 3.521531387
-22.3776189 58.8 5.31433649
-22.78867633 58.8 7.52836177
-20.22050474 58.8 8.667824881
-19.40226782 58.8 10.37072821
-18.44094352 58.8 11.99714975
-17.34362141 58.8 13.53509499
-16.11839398 58.8 14.97322195
-14.77429701 58.8 16.30092476
-12.71573187 58.8 16.712575
-11.76994764 58.8 18.58677844
-10.59239035 58.8 20.41571127
-9.184402377 58.8 22.17310878
-6.946136834 58.8 21.92603893
-5.258429764 58.8 23.41685112
-3.095356296 58.8 22.79076061
-1.030421161 58.8 20.97470458
0.8465661277 58.4 22.98441485
2.570624179 58.4 20.84207023
4.3493389 58.4 20.54466479
6.3862629 58.4 21.05268739
7.797661073 58.4 19.49862769
9.891449252 58.4 19.65093463
10.49179365 58.4 17.02710386
11.31828679 58.4 15.2609431
12.58589977 58.4 14.2335915
13.03644749 58.4 12.41172981
13.27253289 58.4 10.6226113
14.13498341 58.4 9.444693961
14.01712151 58.4 7.714940353
15.54156585 58.4 6.889102338
15.12971721 58.4 5.204964675
15.52050005 58.4 3.887682878
15.79682269 58.4 2.541730293
15.95664731 58.4 1.177033018
16.99871993 58.4 -0.2086161509
15.92295563 58.4 -1.568274245
15.7296878 58.4 -2.928638207
16.38419312 58.4 -4.534116877
14.99742419 58.4 -5.574698884
14.46382869 58.4 -6.840881495
14.68753855 58.4 -8.560152523
14.71652664 58.4 -10.36454745
14.53817805 58.4 -12.23279931
13.43502884 58.4 -13.43502884
13.5204624 58.4 -16.06851258
11.51616383 58.4 -16.35169626
11.58138283 58.4 -19.87137569
10.26132224 58.4 -21.69574303
9.058885686 58.4 -24.37081431
7.467957209 58.4 -26.98572984
5.125116863 58.4 -27.52695365
2.744479929 58.4 -27.86517235
0.343603072 58.4 -27.99789165
-1.986243217 58.4 -26.92684233
-4.130311727 58.4 -25.66983687
-6.074504498 58.4 -24.25078133
-8.132757304 58.4 -23.64018313
-10.13103285 58.4 -22.85524389
-13.01896185 58.4 -23.65389254
-14.44482606 58.4 -21.61820992
-17.49606567 58.4 -21.8606424
-18.61759471 58.4 -19.55467124
-21.72495544 58.4 -19.21005755
-22.48981088 58.4 -16.67958053
-23.83794541 58.4 -14.68851111
-25.01028043 58.4 -12.58911723
-25.06966417 58.4 -10.02556424
-23.92350839 58.4 -7.257116931
-22.50129953 58.4 -4.763561652
-24.81198836 58.4 -3.06026688
-24.98305961 58.4 -0.9201805735
-23.97109095 58.4 1.177624184
-23.78166325 58.4 3.229937004
-23.41685112 58.4 5.258429764
-21.92603893 58.4 6.946136834
-20.32534972 58.4 8.419035512
-18.64043203 58.4 9.67131293
-18.58677844 58.4 11.76994764
-18.30424881 58.4 13.92675395
-15.55997363 58.4 14.10273805
-14.97322195 58.4 16.11839398
-12.9198634 58.4 16.55527498
-11.99714975 58.4 18.44094352
-10.37072821 58.4 19.40226782
-9.061816921 58.4 21.13961859
-7.214680029 58.4 21.83914815
-5.545394599 58.4 23.35055885
-3.228070438 58.4 21.76188322
-1.410376935 58.4 22.9567166
0.5399070275 58 21.99337401
2.314666353 58 20.87204637
4.096896762 58 20.59649089
6.127433166 58 21.12947143
7.557795767 58 19.59284878
9.210941009 58 18.87216378
10.28205488 58 17.1545722
11.13015929 58 15.39868677
11.75711117 58 13.62975924
12.88315486 58 12.57077249
13.14117771 58 10.78468583
14.01801815 58 9.617440783
13.92139186 58 7.886371076
14.54668773 58 6.662872962
16.00624911 58 5.727127508
15.47162354 58 4.077850554
15.76444228 58 2.73539022
16.93731441 58 1.45855431
16 58 9.797174393e-16
14.94468918 58 -1.286959685
15.76444228 58 -2.73539022
14.50464707 58 -3.822984894
16.00624911 58 -5.727127508
14.54668773 58 -6.662872962
14.79147885 58 -8.379269268
14.84260745 58 -10.18317259
14.68719861 58 -12.0534724
15.03034733 58 -14.66590124
12.41028402 58 -14.38696808
11.71595715 58 -16.20914397
11.31026037 58 -18.87002942
10.52678972 58 -21.56818718
9.717165986 58 -25.19080557
7.520031613 58 -25.93162402
5.657619338 58 -28.44277313
2.975999597 58 -26.83548819
0.6871543986 58 -27.99156692
-1.594339144 58 -25.95107094
-3.814992336 58 -25.71858926
-5.776452707 58 -24.32349881
-8.15572525 58 -24.6877327
-10.24379304 58 -23.89696014
-12.25631516 58 -22.92995287
-14.72377469 58 -22.63206705
-17.22648454 58 -22.07369997
-19.05682794 58 -20.51431961
-20.74663151 58 -18.80365074
-22.28343333 58 -16.95430916
-22.81104626 58 -14.44493574
-23.96626975 58 -12.4345452
-24.02086785 58 -9.949769241
-23.83265101 58 -7.550148733
-23.41685112 58 -5.258429764
-23.78166325 58 -3.229937004
-23.97109095 58 -1.177624184
-24.98305961 58 0.9201805735
-23.81950883 58 2.937856205
-22.50129953 58 4.763561652
-21.05268739 58 6.3862629
-21.35563985 58 8.540295461
-19.65093463 58 9.891449252
-18.72981425 58 11.54097302
-17.67056569 58 13.1053847
-15.73186428 58 13.91073133
-15.16989198 58 15.93343582
-13.74690874 58 17.17621903
-12.22254513 58 18.29233147
-10.60804299 58 19.27354207
-9.725791536 58 21.94103414
-7.48213672 58 21.74896848
-5.831524318 58 23.28075008
-3.653737297 58 22.70793262
-1.618420399 58 21.94039005
0.2822453806 57.6 22.99826814
2.156377087 57.6 21.89406399
3.843837647 57.6 20.64521524
6.134393422 57.6 22.16684951
7.665210965 57.6 20.62145826
9.406212055 57.6 19.88776445
10.07076767 57.6 17.27945712
11.51616383 57.6 16.35169626
11.58896777 57.6 13.77301078
13.43502884 57.6 13.43502884
13.00784352 57.6 10.94513623
13.89894182 57.6 9.788739254
13.8235657 57.6 8.05661414
15.36781798 57.6 7.268436588
14.99742419 57.6 5.574698884
14.45664099 57.6 4.000691362
15.7296878 57.6 2.928638207
15.92295563 57.6 1.568274245
15.99879523 57.6 0.1963446126
12.96477594 57.6 -0.9563393268
16.78412411 57.6 -2.700588437
15.52050005 57.6 -3.887682878
16.07532453 57.6 -5.530274967
14.62735609 57.6 -6.483861024
15.7692617 57.6 -8.679307897
15.79792263 57.6 -10.55583443
15.61474457 57.6 -12.49718976
14.48494166 57.6 -13.79081089
13.91073133 57.6 -15.73186428
13.1053847 57.6 -17.67056569
12.0655627 57.6 -19.58116944
10.79067191 57.6 -21.43738323
9.654247043 57.6 -24.14115809
8.127970963 57.6 -26.7943294
6.00622991 57.6 -28.37120375
3.549909581 57.6 -28.7819065
1.030602242 57.6 -27.98102677
-1.324827207 57.6 -26.96747732
-3.499098421 57.6 -25.76346852
-5.477531004 57.6 -24.39255325
-7.550148733 57.6 -23.83265101
-9.567085809 57.6 -23.09698831
-11.51346777 57.6 -22.19099051
-14.44493574 57.6 -22.81104626
-16.95430916 57.6 -22.28343333
-18.80365074 57.6 -20.74663151
-21.24697388 57.6 -19.73742894
-22.8620464 57.6 -17.84171613
-21.79384234 57.6 -14.1784497
-22.92995287 57.6 -12.25631516
-23.89696014 57.6 -10.24379304
-23.73820451 57.6 -7.84204351
-24.32349881 57.6 -5.776452707
-23.74023624 57.6 -3.521531387
-23.95483471 57.6 -1.471697671
-22.99307283 57.6 0.564448256
-23.85376728 57.6 2.645332975
-24.51963201 57.6 4.87725805
-21.12947143 57.6 6.127433166
-20.52584157 57.6 7.917690804
-19.77083825 57.6 9.649557248
-18.87002942 57.6 11.31026037
-17.83005836 57.6 12.88755286
-16.65859462 57.6 14.36980254
-15.36427749 57.6 15.74607816
-13.32225897 57.6 16.23321952
-11.88036803 57.6 17.31637536
-10.84376023 57.6 19.1419138
-9.161450322 57.6 20.00169563
-8.085356481 57.6 22.59705756
-5.607044511 57.6 21.27348236
-4.10308533 57.6 23.64666342
-2.059135496 57.6 23.91150269
0 57.2 22
1.887540872 57.2 21.91887747
3.761161553 57.2 21.67610813
5.607044511 57.2 21.27348236
7.748466628 57.2 21.6555135
9.161450322 57.2 20.00169563
10.35086204 57.2 18.27182681
11.88036803 57.2 17.31637536
12.68786568 57.2 15.46020907
12.57077249 57.2 12.88315486
13.62975924 57.2 11.75711117
13.77777237 57.2 9.958563577
14.58138637 57.2 8.739746651
15.27746592 57.2 7.456476055
15.86087758 57.2 6.118215621
17.28774935 57.2 5.013354409
16.67334977 57.2 3.316535474
16.89641849 57.2 1.873777524
16.99487992 57.2 0.4172008849
15.96988981 57.2 -0.9811317808
16.81600067 57.2 -2.494418066
15.56703924 57.2 -3.696929732
15.19245089 57.2 -5.018907846
16.54404933 57.2 -7.091856721
15.87458276 57.2 -8.485141263
16.76449411 57.2 -10.90649977
14.1902357 57.2 -11.07416863
15.38573971 57.2 -14.29262095
14.10273805 57.2 -15.55997363
12.71573187 57.2 -16.712575
12.30494526 57.2 -19.431632
11.05292906 57.2 -21.30335089
9.949769241 57.2 -24.02086785
8.154160632 57.2 -25.73926309
6.134834724 57.2 -27.31965964
3.768259838 57.2 -27.74527379
1.373894881 57.2 -27.96627277
-1.030602242 57.2 -27.98102677
-3.182677555 57.2 -25.8044679
-4.970673029 57.2 -23.4796169
-7.257116931 57.2 -23.92350839
-8.911612655 57.2 -22.28414593
-11.68989457 57.2 -23.22383183
-14.16392143 57.2 -22.98659021
-16.08388122 57.2 -21.68660335
-17.88522599 57.2 -20.22668265
-20.27891832 57.2 -19.30713525
-22.64137963 57.2 -18.12092516
-24.11261876 57.2 -16.11153676
-23.65389254 57.2 -13.01896185
-22.85524389 57.2 -10.13103285
-24.58579046 57.2 -8.458067596
-24.25078133 57.2 -6.074504498
-23.69523404 57.2 -3.81259544
-22.9376805 57.2 -1.691984963
-23.99819284 57.2 0.2945169189
-23.88443344 57.2 2.352411368
-21.62832072 57.2 4.026877535
-22.16684951 57.2 6.134393422
-21.55879727 57.2 8.013629646
-20.79175374 57.2 9.833767149
-18.14342998 57.2 10.57430606
-17.98686589 57.2 12.66778021
-17.59884711 57.2 14.80812549
-15.55634919 57.2 15.55634919
-13.5204624 57.2 16.06851258
-12.66778021 57.2 17.98686589
-11.07784444 57.2 19.00740283
-9.406212055 57.2 19.88776445
-8.362048326 57.2 22.49613629
-6.134393422 57.2 22.16684951
-4.209917423 57.2 22.61142621
-2.254394228 57.2 22.88924871
-0.2822453806 57.2 22.99826814
1.544855836 56.8 20.94309959
3.494879153 56.8 21.7206312
5.345563958 56.8 21.34068757
7.156826428 56.8 20.80336116
8.915308908 56.8 20.11261463
10.12585921 56.8 18.39747198
11.66697489 56.8 17.46086186
12.49718976 56.8 15.61474457
12.41172981 56.8 13.03644749
12.73531871 56.8 11.26106822
13.65452804 56.8 10.12688818
14.47303828 56.8 8.918024606
15.18481312 56.8 7.643392604
14.85609729 56.8 5.941075103
15.31104537 56.8 4.644554836
17.60971267 56.8 3.728004771
16.87215209 56.8 2.080981478
15.98915815 56.8 0.5889155671
16.97952276 56.8 -0.8341504636
15.85444217 56.8 -2.153291336
15.61123408 56.8 -3.505619843
16.20620269 56.8 -5.134101138
15.70595205 56.8 -6.50561835
15.08987355 56.8 -7.829158086
15.20736417 56.8 -9.629957158
15.91673809 56.8 -12.11022083
14.07807138 56.8 -12.75962014
14.29262095 56.8 -15.38573971
12.9198634 56.8 -16.55527498
11.99714975 56.8 -18.44094352
11.31352168 56.8 -21.16611034
9.849801002 56.8 -22.97784629
8.15572525 56.8 -24.6877327
6.238568924 56.8 -26.26937871
4.255183759 56.8 -28.68611879
1.65565988 56.8 -26.94918905
-0.6626131701 56.8 -26.9918681
-2.86577739 56.8 -25.84158122
-4.87725805 56.8 -24.51963201
-6.962992235 56.8 -24.01076299
-8.997375913 56.8 -23.32481997
-11.4040222 56.8 -23.36553611
-12.8525686 56.8 -21.44321525
-15.81654215 56.8 -21.88234435
-18.2888396 56.8 -21.2018477
-20.04046311 56.8 -19.55453498
-21.64429269 56.8 -17.76301196
-23.08850048 56.8 -15.8404907
-22.62226177 56.8 -12.815353
-23.63836756 56.8 -10.82716856
-22.59705756 56.8 -8.085356481
-25.14138825 56.8 -6.62650715
-25.6172187 56.8 -4.445009108
-23.91150269 56.8 -2.059135496
-24 56.8 -4.408728477e-15
-21.91887747 56.8 1.887540872
-22.66138577 56.8 3.932123441
-21.27348236 56.8 5.607044511
-21.6555135 56.8 7.748466628
-20.91086361 56.8 9.577879882
-19.1419138 56.8 10.84376023
-18.14096466 56.8 12.44609984
-17.77924043 56.8 14.59104554
-16.46180898 56.8 16.06265374
-14.36980254 56.8 16.65859462
-12.88755286 56.8 17.83005836
-11.31026037 56.8 18.87002942
-9.649557248 56.8 19.77083825
-8.27758584 56.8 21.45883437
-6.962992235 56.8 24.01076299
-4.487077406 56.8 22.55806145
-2.535110768 56.8 22.85986031
-0.515365799 56.8 20.99367519
1.287735462 56.4 20.96048037
3.228070438 56.4 21.76188322
5.31433649 56.4 22.3776189
6.900998289 56.4 20.88961997
8.273832841 56.4 19.30139089
9.427934737 56.4 17.63842529
10.90649977 56.4 16.76449411
12.30463181 56.4 15.76692855
12.93141896 56.4 13.92043116
12.59616913 56.4 11.41650223
13.52922738 56.4 10.2936877
13.51765704 56.4 8.559961918
15.08987355 56.4 7.829158086
14.78207252 56.4 6.122934918
15.25289665 56.4 4.832095189
16.58693621 56.4 3.724721083
15.85444217 56.4 2.153291336
15.9807273 56.4 0.7850827892
15.98915815 56.4 -0.5889155671
16.87215209 56.4 -2.080981478
15.65307793 56.4 -3.313782019
15.31104537 56.4 -4.644554836
15.78460337 56.4 -6.312392297
16.07803742 56.4 -8.093003934
15.32439348 56.4 -9.442614288
15.2609431 56.4 -11.31828679
14.98272789 56.4 -13.24831555
14.48035144 56.4 -15.20918874
13.74690874 56.4 -17.17621903
12.77811536 56.4 -19.12380108
11.57241053 56.4 -21.02568226
10.53627416 56.4 -23.76945365
8.458067596 56.4 -24.58579046
6.803445037 56.4 -27.16087509
4.448028013 56.4 -27.64443971
2.133372344 56.4 -28.92142324
-0.3190599954 56.4 -25.99804225
-2.646462789 56.4 -26.86998762
-4.392957311 56.4 -23.5945317
-6.134393422 56.4 -22.16684951
-8.710467006 56.4 -23.4334753
-10.68887734 56.4 -22.59973233
-12.58845959 56.4 -21.5993214
-16.12262936 56.4 -22.89237477
-18.0272832 56.4 -21.42468344
-19.79898987 56.4 -19.79898987
-21.42468344 56.4 -18.0272832
-22.89237477 56.4 -16.12262936
-24.19123997 56.4 -14.09907474
-24.40771091 56.4 -11.54398752
-23.4334753 56.4 -8.710467006
-24.09440164 56.4 -6.667818937
-24.57763719 56.4 -4.575997199
-24.87961817 56.4 -2.450428508
-23.99819284 56.4 -0.2945169189
-23.93497096 56.4 1.765549526
-21.7206312 56.4 3.494879153
-21.34068757 56.4 5.345563958
-21.74896848 56.4 7.48213672
-21.02682438 56.4 9.320550222
-20.14961217 56.4 11.09022676
-18.29233147 56.4 12.22254513
-17.17621903 56.4 13.74690874
-14.48494166 56.4 13.79081089
-14.57314711 56.4 16.48100068
-13.1053847 56.4 17.67056569
-11.01638334 56.4 17.87845906
-10.79067191 56.4 21.43738323
-8.911612655 56.4 22.28414593
-6.676547577 56.4 22.00962772
-4.763561652 56.4 22.50129953
-2.693034854 56.4 21.83454976
-0.7729516818 56.4 20.98577008
1.030421161 56 20.97470458
2.69161417 56 19.81805271
4.601126043 56 20.48974473
6.342124936 56 20.01942685
8.03635208 56 19.40147018
9.210774219 56 17.75279241
10.6999524 56 16.8970713
10.89919875 56 14.32506428
10.74494328 56 11.85521801
13.92043116 56 12.93141896
12.61354284 56 9.843705449
14.24981999 56 9.270524803
14.11074023 56 7.542347789
14.70582163 56 6.303872641
16.14197907 56 5.332589587
15.56703924 56 3.696929732
15.82682416 56 2.347687591
15.96988981 56 0.9811317808
16.99487992 56 -0.4172008849
15.90251152 56 -1.763555317
15.69256449 56 -3.121445152
16.32731883 56 -4.73483472
13.99489198 56 -5.398425548
16.17614038 56 -7.895092294
15.43911498 56 -9.253849395
14.58822957 56 -10.54436143
15.14417693 56 -13.06345686
13.96752499 56 -14.31461651
14.59104554 56 -17.77924043
13.01183165 56 -18.96555396
11.82955661 56 -20.88208779
10.82716856 56 -23.63836756
9.096026042 56 -25.42168976
7.136238469 56 -27.07534119
4.786932885 56 -27.58777399
2.230730121 56 -25.90412792
3.306546358e-15 56 -27
-2.230730121 56 -25.90412792
-4.274047219 56 -24.63194106
-6.37164149 56 -24.17441178
-8.085356481 56 -22.59705756
-10.410739 56 -22.72919958
-12.32245481 56 -21.75217478
-14.70902708 56 -21.43932187
-16.49422539 56 -20.09827179
-18.85615873 56 -19.32473228
-20.44463886 56 -17.63566676
-22.69280155 56 -16.40234001
-22.30094386 56 -13.36667135
-23.36553611 56 -11.4040222
-23.32481997 56 -8.997375913
-24.01076299 56 -6.962992235
-24.51963201 56 -4.87725805
-23.85376728 56 -2.645332975
-22.99307283 56 -0.564448256
-22.9567166 56 1.410376935
-22.75105973 56 3.374800912
-21.40467895 56 5.083278382
-21.83914815 56 7.214680029
-21.13961859 56 9.061816921
-20.28418908 56 10.84212495
-18.44094352 56 11.99714975
-17.34362141 56 13.53509499
-16.11839398 56 14.97322195
-14.77429701 56 16.30092476
-12.71573187 56 16.712575
-11.76994764 56 18.58677844
-11.05292906 56 21.30335089
-8.801718944 56 21.24922925
-7.248142784 56 22.87934497
-5.039328524 56 22.44114899
-3.095356296 56 22.79076061
-1.079488835 56 21.97350004
0.7729516818 55.6 20.98577008
2.570624179 55.6 20.84207023
4.3493389 55.6 20.54466479
6.3862629 55.6 21.05268739
7.797661073 55.6 19.49862769
8.992226593 55.6 17.86448602
9.967203971 55.6 16.17574867
10.72258748 55.6 14.45773557
11.923484 55.6 13.4844551
13.03644749 55.6 12.41172981
11.71105843 55.6 9.372892322
14.13498341 55.6 9.444693961
14.01712151 55.6 7.714940353
14.62735609 55.6 6.483861024
16.07532453 55.6 5.530274967
16.4905313 55.6 4.130663058
14.80952127 55.6 2.38287215
16.95393776 55.6 1.250597581
16.99871993 55.6 -0.2086161509
16.91814035 55.6 -1.666291386
15.7296878 55.6 -2.928638207
16.38419312 55.6 -4.534116877
14.99742419 55.6 -5.574698884
16.27180728 55.6 -7.695991682
14.68753855 55.6 -8.560152523
15.53411145 55.6 -10.94035564
15.30334531 55.6 -12.87663086
14.14213562 55.6 -14.14213562
14.80812549 55.6 -17.59884711
12.66778021 55.6 -17.98686589
11.07784444 55.6 -19.00740283
10.26132224 55.6 -21.69574303
9.058885686 55.6 -24.37081431
7.201244452 55.6 -26.02195378
4.942076975 55.6 -26.54384816
2.744479929 55.6 -27.86517235
0.343603072 55.6 -27.99789165
-1.912678654 55.6 -25.92955187
-3.971453583 55.6 -24.68253545
-5.831524318 55.6 -23.28075008
-7.807447012 55.6 -22.69457581
-10.13103285 55.6 -22.85524389
-11.57241053 55.6 -21.02568226
-13.88925583 55.6 -20.78674031
-16.24634669 55.6 -20.29916794
-17.92805416 55.6 -18.83042416
-20.97581905 55.6 -18.54764177
-20.88339582 55.6 -15.48818192
-22.98659021 55.6 -14.16392143
-23.22383183 55.6 -11.68989457
-24.14115809 55.6 -9.654247043
-24.88044873 55.6 -7.547401609
-25.43625164 55.6 -5.384895781
-24.81198836 55.6 -3.06026688
-23.98373723 55.6 -0.8833733506
-23.97109095 55.6 1.177624184
-22.79076061 55.6 3.095356296
-22.44114899 55.6 5.039328524
-20.97273289 55.6 6.644130885
-20.32534972 55.6 8.419035512
-19.52807165 55.6 10.13185164
-18.58677844 55.6 11.76994764
-17.5084119 55.6 13.32124291
-15.55997363 55.6 14.10273805
-14.97322195 55.6 16.11839398
-13.53509499 55.6 17.34362141
-11.99714975 55.6 18.44094352
-10.37072821 55.6 19.40226782
-9.061816921 55.6 21.13961859
-7.84204351 55.6 23.73820451
-5.545394599 55.6 23.35055885
-3.081339964 55.6 20.77270671
-1.349056199 55.6 21.95859848
0.515365799 55.2 20.99367519
2.204444146 55.2 19.8781394
4.096896762 55.2 20.59649089
5.848913477 55.2 20.16904091
7.557795767 55.2 19.59284878
9.210941009 55.2 18.87216378
10.28205488 55.2 17.1545722
11.13015929 55.2 15.39868677
11.75711117 55.2 13.62975924
12.88315486 55.2 12.57077249
13.14117771 55.2 10.78468583
13.19342884 55.2 9.051708973
13.92139186 55.2 7.886371076
15.45585571 55.2 7.079302522
15.06470504 55.2 5.390237654
14.50464707 55.2 3.822984894
15.76444228 55.2 2.73539022
16.93731441 55.2 1.45855431
16 55.2 9.797174393e-16
15.94100179 55.2 -1.372756998
15.76444228 55.2 -2.73539022
15.47162354 55.2 -4.077850554
15.06470504 55.2 -5.390237654
16.3650237 55.2 -7.495732082
14.79147885 55.2 -8.379269268
15.66719675 55.2 -10.7489044
14.68719861 55.2 -12.0534724
14.31461651 55.2 -13.96752499
14.36980254 55.2 -16.65859462
12.88755286 55.2 -17.83005836
12.33846586 55.2 -20.58548664
10.52678972 55.2 -21.56818718
8.997375913 55.2 -23.32481997
7.241511924 55.2 -24.9711935
5.462529016 55.2 -27.46198785
2.975999597 55.2 -26.83548819
0.6380719416 55.2 -25.99216929
-1.533018408 55.2 -24.95295282
-3.668261861 55.2 -24.72941275
-5.545394599 55.2 -23.35055885
-7.84204351 55.2 -23.73820451
-9.455808961 55.2 -22.05873244
-11.31352168 55.2 -21.16611034
-13.08779972 55.2 -20.11739293
-15.99602136 55.2 -20.49700712
-18.37622694 55.2 -19.78166534
-19.26472926 55.2 -17.46053283
-21.48759642 55.2 -16.34879812
-22.81104626 55.2 -14.44493574
-23.96626975 55.2 -12.4345452
-24.02086785 55.2 -9.949769241
-24.78595705 55.2 -7.852154682
-24.39255325 55.2 -5.477531004
-23.78166325 55.2 -3.229937004
-24.96988641 55.2 -1.226691858
-23.98373723 55.2 0.8833733506
-22.8270293 55.2 2.81544553
-21.52298216 55.2 4.556450276
-20.09574705 55.2 6.095978222
-20.42713377 55.2 8.168978267
-19.65093463 55.2 9.891449252
-18.72981425 55.2 11.54097302
-17.67056569 55.2 13.1053847
-16.48100068 55.2 14.57314711
-14.48035144 55.2 15.20918874
-13.74690874 55.2 17.17621903
-12.22254513 55.2 18.29233147
-11.09022676 55.2 20.14961217
-9.725791536 55.2 21.94103414
-7.807447012 55.2 22.69457581
-5.588544138 55.2 22.31071882
-3.494879153 55.2 21.7206312
-1.691984963 55.2 22.9376805
0.2699738423 54.8 21.99834344
1.862325666 54.8 18.90850981
3.843837647 54.8 20.64521524
5.334255149 54.8 19.27552132
6.968373605 54.8 18.74678024
8.978656962 54.8 18.98377516
10.07076767 54.8 17.27945712
11.51616383 54.8 16.35169626
11.58896777 54.8 13.77301078
12.02081528 54.8 12.02081528
13.77301078 54.8 11.58896777
12.2637722 54.8 8.637122871
12.95959284 54.8 7.553075756
14.46382869 54.8 6.840881495
15.9347632 54.8 5.923117564
15.42041705 54.8 4.26740412
15.7296878 54.8 2.928638207
16.91814035 54.8 1.666291386
15.99879523 54.8 0.1963446126
16.95393776 54.8 -1.250597581
14.80952127 54.8 -2.38287215
15.52050005 54.8 -3.887682878
16.07532453 54.8 -5.530274967
15.54156585 54.8 -6.889102338
15.7692617 54.8 -8.679307897
14.96645302 54.8 -10.00026419
15.61474457 54.8 -12.49718976
15.20918874 54.8 -14.48035144
14.57314711 54.8 -16.48100068
13.701084 54.8 -18.47377322
11.54097302 54.8 -18.72981425
10.34106058 54.8 -20.54415893
9.282929849 54.8 -23.21265201
7.547401609 54.8 -24.88044873
5.592007157 54.8 -26.41456901
3.182677555 54.8 -25.8044679
0.9569877965 54.8 -25.982382
-1.226691858 54.8 -24.96988641
-3.364517713 54.8 -24.77256589
-5.258429764 54.8 -23.41685112
-6.946136834 54.8 -21.92603893
-8.419035512 54.8 -20.32534972
-10.59239035 54.8 -20.41571127
-13.90993812 54.8 -21.9661927
-15.74328708 54.8 -20.69175952
-17.46053283 54.8 -19.26472926
-19.04901106 54.8 -17.69562594
-20.49700712 54.8 -15.99602136
-21.79384234 54.8 -14.1784497
-22.92995287 54.8 -12.25631516
-24.816074 54.8 -10.63778508
-24.6877327 54.8 -8.15572525
-24.32349881 54.8 -5.776452707
-24.72941275 54.8 -3.668261861
-23.95483471 54.8 -1.471697671
-23.99277165 54.8 0.5889894845
-22.85986031 54.8 2.535110768
-22.55806145 54.8 4.487077406
-20.16904091 54.8 5.848913477
-20.52584157 54.8 7.917690804
-20.66951271 54.8 10.08817349
-18.01230081 54.8 10.79615763
-17.01960116 54.8 12.30175501
-16.65859462 54.8 14.36980254
-15.36427749 54.8 15.74607816
-13.95665225 54.8 17.00622997
-11.88036803 54.8 17.31637536
-11.33665842 54.8 20.0120008
-9.577879882 54.8 20.91086361
-7.748466628 54.8 21.6555135
-5.861910171 54.8 22.24045883
-4.274047219 54.8 24.63194106
-1.801743559 54.8 20.92256486
0 54.4 21
1.801743559 54.4 20.92256486
3.419237775 54.4 19.70555285
5.352178852 54.4 20.30650589
7.411576775 54.4 20.71396943
8.328591202 54.4 18.18335966
9.857963845 54.4 17.40173982
10.7489044 54.4 15.66719675
12.0534724 54.4 14.68719861
11.87239624 54.4 12.16742403
12.87255039 54.4 11.10393833
12.15685797 54.4 8.786967862
14.58138637 54.4 8.739746651
13.48011699 54.4 6.579243578
14.92788478 54.4 5.758320585
15.36688831 54.4 4.45631503
13.73099393 54.4 2.731264508
15.90251152 54.4 1.763555317
15.9951811 54.4 0.3926596564
15.96988981 54.4 -0.9811317808
15.82682416 54.4 -2.347687591
13.62115933 54.4 -3.234813516
15.19245089 54.4 -5.018907846
15.62493548 54.4 -6.697864681
14.99266149 54.4 -8.013744526
14.24981999 54.4 -9.270524803
14.97858212 54.4 -11.68940022
14.65308543 54.4 -13.61201996
14.10273805 54.4 -15.55997363
13.92675395 54.4 -18.30424881
12.30494526 54.4 -19.431632
11.05292906 54.4 -21.30335089
9.184402377 54.4 -22.17310878
7.550148733 54.4 -23.83265101
5.477531004 54.4 -24.39255325
3.364517713 54.4 -24.77256589
1.275759533 54.4 -25.96868186
-0.9201805735 54.4 -24.98305961
-2.937856205 54.4 -23.81950883
-4.763561652 54.4 -22.50129953
-6.3862629 54.4 -21.05268739
-8.168978267 54.4 -20.42713377
-10.34106058 54.4 -20.54415893
-12.0655627 54.4 -19.58116944
-14.89248261 54.4 -20.08018829
-16.56039444 54.4 -18.72840986
-18.83042416 54.4 -17.92805416
-19.51843071 54.4 -15.6214872
-21.61820992 54.4 -14.44482606
-22.77782245 54.4 -12.53677807
-22.85524389 54.4 -10.13103285
-23.64018313 54.4 -8.132757304
-24.25078133 54.4 -6.074504498
-24.68253545 54.4 -3.971453583
-24.93226142 54.4 -1.83911409
-23.99819284 54.4 0.2945169189
-22.88924871 54.4 2.254394228
-21.62832072 54.4 4.026877535
-21.20307345 54.4 5.867680664
-20.62145826 54.4 7.665210965
-18.98377516 54.4 8.978656962
-18.14342998 54.4 10.57430606
-17.98686589 54.4 12.66778021
-16.83367984 54.4 14.16429394
-15.55634919 54.4 15.55634919
-13.5204624 54.4 16.06851258
