# .PCD v0.7 - Point Cloud Data file format
VERSION 0.7
FIELDS x y z
SIZE 4 4 4
TYPE F F F
COUNT 1 1 1
WIDTH 1682
HEIGHT 1
VIEWPOINT 0 0 0 1 0 0 0
POINTS 1682
DATA ascii
3.248275886 78.4 18.72027521
4.842447532 78.4 18.37255295
6.400907214 78.4 17.88933724
8.328591202 78.4 18.18335966
9.857963845 78.4 17.40173982
10.7489044 78.4 15.66719675
12.68786568 78.4 15.46020907
14.66590124 78.4 15.03034733
16.65859462 78.4 14.36980254
18.64051556 78.4 13.47335072
19.72775803 78.4 11.82436312
21.56818718 78.4 10.52678972
23.32481997 78.4 8.997375913
25.93162402 78.4 7.520031613
25.50041729 78.4 5.072348372
24.84767425 78.4 2.755555182
23.99277165 78.4 0.5889894845
22.9567166 78.4 -1.410376935
19.7835302 78.4 -2.934609489
17.51291914 78.4 -4.159045949
14.24292271 78.4 -4.705226106
11.02936622 78.4 -4.727904481
7.055370115 78.4 -3.771173895
5.029348233 78.4 -3.271949931
1.576692855 78.4 -1.230463181
-1.465308543 78.4 1.361201996
-2.686235819 78.4 2.963804501
-4.23857729 78.4 5.570858332
-4.279980959 78.4 6.758828522
-6.908080664 78.4 13.31459431
-6.50561835 78.4 15.70595205
-6.342124936 78.4 20.01942685
-5.258429764 78.4 23.41685112
-3.768259838 78.4 27.74527379
-1.373894881 78.4 27.96627277
1.141023911 78 30.97899392
3.672320256 78 29.77438604
6.213341286 78 29.34952112
7.837686286 78 25.83738906
9.654247043 78 24.14115809
9.891449252 78 19.65093463
9.967203971 78 16.17574867
9.531188872 78 12.8513205
10.59865244 78 11.98618231
8.690964995 78 8.274486537
8.588109514 78 6.87345437
7.483226511 78 5.000132097
6.132490659 78 3.375286405
3.656839023 78 1.620965256
1.891214651 78 0.6506205843
-0.9700312532 78 -0.2429801799
-2.961904254 78 -0.47657443
-4.986452283 78 -0.367822818
-4.999623509 78 0.06135769143
-13.93258617 78 1.372239965
-6.881738412 78 1.281279216
-6.746432461 78 1.866989302
-7.498712095 78 2.787349442
-8.135903638 78 3.847995841
-6.911782849 78 4.02830707
-7.358263318 78 5.182273723
-6.121338125 78 5.150652343
-5.656854249 78 5.656854249
-6.438315429 78 7.651672656
-6.333890106 78 8.993432945
-5.035383837 78 8.639728561
-4.703106028 78 9.943882224
-3.484186802 78 9.373390119
-2.933840332 78 10.60153672
-2.013438768 78 10.81416036
-1.372239965 78 13.93258617
-0.171801536 78 13.99894583
1.02990389 78 13.96206639
2.38287215 78 14.80952127
3.644702699 78 14.5504688
5.530274967 78 16.07532453
6.889102338 78 15.54156585
8.679307897 78 15.7692617
9.444693961 78 14.13498341
11.87233027 78 14.83400734
13.79081089 78 14.48494166
14.98272789 78 13.24831555
16.06415063 78 11.91398609
17.87845906 78 11.01638334
19.65093463 78 9.891449252
17.64161553 78 7.055026685
21.05268739 78 6.3862629
20.54466479 78 4.3493389
19.84959069 78 2.448213504
18.98712531 78 0.6993372359
17.97831821 78 -0.8832181379
15.85444217 78 -2.153291336
12.68412769 78 -2.848316122
11.43967248 78 -3.624071392
8.314915793 78 -3.444150891
5.325837722 78 -2.763232266
4.224267826 78 -2.674988099
-0 78 0
-1.481902251 78 1.34311791
-4.083605987 78 4.39592563
-4.921852725 78 6.306771421
-7.089224849 78 10.89692117
-8.013744526 78 14.99266149
-7.485848761 78 17.46316318
-7.214680029 78 21.83914815
-6.007510815 78 25.29643876
-4.255183759 78 28.68611879
-1.778301353 78 28.94542527
0.7853193127 77.6 31.9903622
3.527110633 77.6 31.80502304
6.047799982 77.6 30.40434369
8.077070992 77.6 27.85248506
9.717165986 77.6 25.19080557
10.52678972 77.6 21.56818718
11.31026037 77.6 18.87002942
10.54436143 77.6 14.58822957
10.45076549 77.6 12.11534154
10.73596238 77.6 10.47564374
9.27612544 77.6 7.61271941
7.421303725 77.6 5.091586297
6.960695929 77.6 3.943185538
5.455007899 77.6 2.498577361
0.9415440652 77.6 0.3368898534
0.966976471 77.6 0.2548656596
-0.9852776424 77.6 -0.1709618888
-1.992625224 77.6 -0.1715946247
-6 77.6 -3.673940397e-16
-5.977875673 77.6 0.5147838741
-5.911665854 77.6 1.025771333
-5.801858826 77.6 1.529193958
-6.590808456 77.6 2.358228974
-5.455007899 77.6 2.498577361
-6.090608938 77.6 3.450287346
-5.772125119 77.6 3.960122675
-6.184083627 77.6 5.075146273
-6.441577428 77.6 6.285386245
-5.878555587 77.6 6.814879619
-4.68638286 77.6 6.483657586
-4.626924698 77.6 7.71955749
-4.386162385 77.6 8.986744657
-3.958845402 77.6 10.26292079
-3.063716583 77.6 10.56473571
-2.145993542 77.6 10.78863808
-1.322666488 77.6 11.92688364
-0.3190359708 77.6 12.99608464
0.8584903082 77.6 13.97365358
2.054226642 77.6 13.84847114
3.465871624 77.6 14.59409928
4.391544366 77.6 13.29339453
5.909880601 77.6 13.78670778
8.013744526 77.6 14.99266149
8.725199815 77.6 13.41159529
11.07416863 77.6 14.1902357
12.93141896 77.6 13.92043116
14.07807138 77.6 12.75962014
15.91673809 77.6 12.11022083
16.8970713 77.6 10.6999524
19.52807165 77.6 10.13185164
20.32534972 77.6 8.419035512
19.06612081 77.6 6.040118986
18.53834047 77.6 4.162923563
19.81805271 77.6 2.69161417
17.97831821 77.6 0.8832181379
17.98780292 77.6 -0.6625300129
14.88719302 77.6 -1.836160128
13.69644319 77.6 -2.899559267
10.52634369 77.6 -3.19313145
10.21356689 77.6 -4.084489133
5.359345807 77.6 -2.697667978
3.405420772 77.6 -2.098358731
-0 77.6 0
-1.498272789 77.6 1.324831555
-4.137243268 77.6 4.345482498
-6.248594881 77.6 7.807372286
-7.222413029 77.6 10.80910496
-8.197124125 77.6 14.8931916
-7.699584966 77.6 17.36998536
-7.807447012 77.6 22.69457581
-6.317484677 77.6 25.22081258
-4.606886157 77.6 28.63174113
-2.206936908 77.6 29.9187137
0.4049607634 77.2 32.99751516
3.234565631 77.2 32.84109598
6.040316303 77.2 32.44248109
8.001382724 77.2 28.91328197
10.45256041 77.2 28.12017036
11.54398752 77.2 24.40771091
12.08492121 77.2 20.73534855
10.94035564 77.2 15.53411145
10.94513623 77.2 13.00784352
10.60660172 77.2 10.60660172
10.71234172 77.2 9.0136416
9.811017758 77.2 6.909698297
8.639728561 77.2 5.035383837
7.231914345 77.2 3.420440747
5.624034071 77.2 2.090512081
1.927552132 77.2 0.5334255149
0.9831054874 77.2 0.183039888
-1.990369453 77.2 -0.1960342807
-3.999698807 77.2 -0.04908615314
-3.989161827 77.2 0.2942582544
-4.936507091 77.2 0.7942907167
-4.850156266 77.2 1.2149009
-4.728036627 77.2 1.626551461
-5.485258534 77.2 2.431447884
-4.380350471 77.2 2.41091886
-4.988817674 77.2 3.333421398
-5.4651606 77.2 4.374016417
-5.069729581 77.2 4.826783813
-5.299326221 77.2 5.993091156
-4.169895131 77.2 5.62245272
-4.196717461 77.2 6.810841545
-4.046501967 77.2 8.039018711
-2.970537552 77.2 7.428048644
-3.19313145 77.2 10.52634369
-2.071113762 77.2 9.783173707
-1.346517427 77.2 10.91727488
-0.4048794524 77.2 10.99254623
0.5397444176 77.2 10.98675002
1.749549211 77.2 12.88173426
2.848316122 77.2 12.68412769
3.926077341 77.2 12.39297852
5.740251485 77.2 13.85819299
6.908080664 77.2 13.31459431
8.559961918 77.2 13.51765704
9.688176662 77.2 12.73339047
12.08806119 77.2 13.33712026
13.18777689 77.2 12.25081796
15.76692855 77.2 12.30463181
15.92626941 77.2 10.36117478
18.52034655 77.2 9.899331473
17.46316318 77.2 7.485848761
18.04103543 77.2 5.959953068
19.45879904 77.2 4.621162166
20.77270671 77.2 3.081339964
17.96612603 77.2 1.103773253
16.99487992 77.2 -0.4172008849
16.89641849 77.2 -1.873777524
13.73099393 77.2 -2.731264508
11.52516623 77.2 -3.342236273
9.329927988 77.2 -3.598950365
5.392046794 77.2 -2.631697431
3.43091444 77.2 -2.056410977
-0.8104571983 77.2 0.5857978575
-3.028835386 77.2 2.612691372
-4.888633746 77.2 5.010115777
-6.978326126 77.2 8.503114987
-7.920245351 77.2 11.54425024
-8.379269268 77.2 14.79147885
-8.328591202 77.2 18.18335966
-8.085356481 77.2 22.59705756
-6.881372809 77.2 26.10836472
-4.786932885 77.2 27.58777399
-2.659716683 77.2 30.88569098
0 76.8 34
2.91710862 76.8 33.87462881
5.983666107 76.8 34.48471748
8.410566767 76.8 31.91022354
9.769805748 76.8 27.30477789
11.24359812 76.8 24.54753554
11.82955661 76.8 20.88208779
12.44609984 76.8 18.14096466
12.0534724 76.8 14.68719861
11.87239624 76.8 12.16742403
11.3581327 76.8 9.797592644
9.725486379 76.8 7.029574289
9.43501471 76.8 5.655130186
8.088070191 76.8 3.947546147
5.597956793 76.8 2.159370219
3.841722078 76.8 1.114078758
0.9807852804 76.8 0.195090322
0 76.8 0
-1.999397637 76.8 -0.04908245705
-3.992472452 76.8 0.2452829452
-5.93505906 76.8 0.8803828467
-5.837639713 76.8 1.38634865
-5.697169084 76.8 1.882090442
-3.676455407 76.8 1.57596816
-5.291527586 76.8 2.828380421
-4.191123528 76.8 2.726624942
-4.730078566 76.8 3.691389543
-4.39592563 76.8 4.083605987
-4.029353729 76.8 4.445706752
-4.844088331 76.8 6.366695237
-3.744983339 76.8 5.913974957
-3.684309688 76.8 7.101116963
-3.444150891 76.8 8.314915793
-3.020059493 76.8 9.533060404
-1.971911161 76.8 8.78131917
-1.480387794 76.8 10.89992899
-0.4906767433 76.8 9.987954562
0.4416866753 76.8 11.99186862
1.591338778 76.8 12.90223395
2.485336514 76.8 11.73980845
3.483416127 76.8 11.48328403
4.827123521 76.8 12.07057905
6.744169945 76.8 13.39836452
7.86884524 76.8 12.7703279
10.12688818 76.8 13.65452804
10.59865244 76.8 11.98618231
13.03644749 76.8 12.41172981
14.83400734 76.8 11.87233027
14.96645302 76.8 10.00026419
16.64533179 76.8 9.16149167
18.28419511 76.8 8.10482628
17.96653918 76.8 6.180895551
20.37065632 76.8 5.102583778
18.75872694 76.8 3.018304723
18.94851868 76.8 1.397726708
15.99879523 76.8 -0.1963446126
14.9277709 76.8 -1.470257105
13.76347682 76.8 -2.562558431
11.56531279 76.8 -3.20055309
8.436051107 76.8 -3.135768122
7.231914345 76.8 -3.420440747
2.591918568 76.8 -1.510615151
-0 76.8 0
-3.060669062 76.8 2.575326172
-4.949747468 76.8 4.949747468
-6.438315429 76.8 7.651672656
-7.485506488 76.8 10.62860257
-8.560152523 76.8 14.68753855
-8.978656962 76.8 18.98377516
-8.362048326 76.8 22.49613629
-7.467957209 76.8 26.98572984
-5.308156751 76.8 28.51005914
-3.136548491 76.8 31.84591125
-0.4172323017 76.8 33.99743986
2.574759726 76.4 34.90516598
5.560035017 76.4 34.55554964
8.018345937 76.4 32.01103136
10.40992935 76.4 30.25943441
11.75199811 76.4 26.51208292
12.0545943 76.4 21.90175235
12.22254513 76.4 18.29233147
11.87233027 76.4 14.83400734
12.41172981 76.4 13.03644749
11.98618231 76.4 10.59865244
11.24490544 76.4 8.339790263
11.06761751 76.4 6.819665875
8.039018711 76.4 4.046501967
6.499542563 76.4 2.599220358
4.784701679 76.4 1.451423386
3.913269483 76.4 0.8284455048
0.9924795346 76.4 0.1224106752
0 76.4 0
-1.997590912 76.4 0.09813534865
-2.972707906 76.4 0.4037421255
-3.90280852 76.4 0.8764049606
-4.766530202 76.4 1.510029747
-3.69551813 76.4 1.530733729
-2.662918861 76.4 1.381616133
-5.069121391 76.4 3.209985719
-3.979184523 76.4 3.027555207
-3.704755627 76.4 3.357794774
-5.444807982 76.4 5.861234173
-4.306621134 76.4 5.518424993
-3.271949931 76.4 5.029348233
-2.828380421 76.4 5.291527586
-3.15193632 76.4 7.352910814
-2.509453923 76.4 7.596225445
-2.079522975 76.4 8.75645957
-1.32057427 76.4 8.90258859
-0.613207363 76.4 9.981181129
0.2454122852 76.4 9.996988187
1.322666488 76.4 11.92688364
2.145993542 76.4 10.78863808
3.063716583 76.4 10.56473571
5.038530511 76.4 13.06189918
6.14062734 76.4 12.58144252
8.225643907 76.4 13.72365776
8.201170004 76.4 11.34640078
10.45076549 76.4 12.11534154
10.73596238 76.4 10.47564374
13.91418816 76.4 11.41907911
15.66719675 76.4 10.7489044
15.66156584 76.4 8.87216746
17.27419168 76.4 7.912161642
18.8308813 76.4 6.737797068
16.43860001 76.4 4.332716213
18.72027521 76.4 3.248275886
17.93362702 76.4 1.544351622
17 76.4 3.122849338e-15
14.94468918 76.4 -1.286959685
12.80860935 76.4 -2.222504554
11.60371765 76.4 -3.058387915
7.532352521 76.4 -2.695118827
5.455007899 76.4 -2.498577361
1.740173982 76.4 -0.9857963845
-0 76.4 0
-2.31903136 76.4 1.903179852
-5.010115777 76.4 4.888633746
-6.53172843 76.4 7.572088465
-8.786967862 76.4 12.15685797
-9.253849395 76.4 15.43911498
-9.210941009 76.4 18.87216378
-8.637480877 76.4 22.39182717
-7.798551303 76.4 26.89205454
-6.047799982 76.4 30.40434369
-3.747555048 76.4 33.79283698
-0.8589429983 76.4 34.98945865
2.084905034 76 33.93601584
4.988836131 76 33.63200134
8.08703379 76 34.05289833
10.03781569 76 30.38490178
11.8197612 76 27.57341555
12.72771189 76 23.81187414
13.63312471 76 20.95561764
13.53509499 76 17.34362141
12.93141896 76 13.92043116
12.59616913 76 11.41650223
12.73339047 76 9.688176662
10.13824278 76 6.419971439
10.65167544 76 5.526464531
7.39103626 76 3.061467459
6.673142282 76 2.114041645
3.90280852 76 0.8764049606
2.972707906 76 0.4037421255
0.9987954562 76 0.04906767433
-0.9993223846 76 0.03680722294
-3.969918138 76 0.4896427008
-2.934952112 76 0.6213341286
-2.870821007 76 0.8708540318
-4.642530402 76 1.85658597
-3.572897205 76 1.798445319
-2.554065579 76 1.573769048
-4.016037657 76 2.978496522
-3.745681973 76 3.312078888
-3.447702724 76 3.621235415
-4.374016417 76 5.4651606
-3.333421398 76 4.988817674
-3.375286405 76 6.132490659
-2.836689198 76 6.39946829
-2.277172045 76 6.619251278
-1.700861259 76 6.790218772
-1.270865147 76 7.898411345
-0.5885165088 76 7.978323653
0.1104438446 76 8.999322317
0.9801714033 76 9.951847267
2.013438768 76 10.81416036
3.20055309 76 11.56531279
4.181024163 76 11.24806814
5.558216215 76 11.75186081
7.049537372 76 12.09561999
8.637122871 76 12.2637722
9.657473143 76 11.47750898
12.02081528 76 12.02081528
12.24267625 76 10.30130469
13.89894182 76 9.788739254
14.68753855 76 8.560152523
16.27180728 76 7.695991682
17.80944123 76 6.619954925
17.34796918 76 4.800829635
17.69589877 76 3.294717983
17.91332508 76 1.764308526
16.99871993 76 0.2086161509
14.95935685 76 -1.103468454
12.83491844 76 -2.065155863
9.700312532 76 -2.429801799
8.510465928 76 -2.927792629
6.39946829 76 -2.836689198
2.628210283 76 -1.446551316
-0 76 0
-2.342211686 76 1.874578464
-6.518223747 76 6.205864903
-7.286573553 76 8.24050034
-7.744090958 76 10.44169791
-8.918024606 76 14.47303828
-8.992226593 76 17.86448602
-9.282929849 76 23.21265201
-7.837686286 76 25.83738906
-6.213341286 76 29.34952112
-4.039552282 76 32.75182464
-1.325060026 76 35.97560585
1.766436276 75.6 35.95663642
4.844905506 75.6 35.67249488
7.887644646 75.6 35.12527668
10.26820228 75.6 32.41240537
12.24586984 75.6 29.56414504
13.35562262 75.6 25.74154899
13.90993812 75.6 21.9661927
13.92675395 75.6 18.30424881
14.10273805 75.6 15.55997363
13.92043116 75.6 12.93141896
13.40188927 75.6 10.45893704
13.41159529 75.6 8.725199815
12.3468977 75.6 6.599554316
10.11025237 75.6 4.333912441
7.596225445 75.6 2.509453923
5.837639713 75.6 1.38634865
2.96752953 75.6 0.4401914234
1.996236226 75.6 0.1226414726
0.9996988187 75.6 -0.02454122852
-0.99390697 75.6 0.1102222073
-0.9807852804 75.6 0.195090322
-1.920861039 75.6 0.5570393788
-0.9329927988 75.6 0.3598950365
-2.696023397 75.6 1.315848716
-2.57318583 75.6 1.542308233
-2.431371595 75.6 1.757393572
-3.028835386 75.6 2.612691372
-2.095128748 75.6 2.147192476
-1.903179852 75.6 2.31903136
-2.828659054 75.6 4.122946514
-2.464490961 75.6 4.350434956
-2.0821478 75.6 4.545839915
-1.684449267 75.6 4.707720326
-1.784059617 75.6 6.768835297
-1.025771333 75.6 5.911665854
-0.6005811864 75.6 6.974188285
-9.797174393e-16 75.6 8
0.6863784988 75.6 7.970500897
1.538656999 75.6 8.867498782
2.803522256 75.6 10.63674118
3.705788387 75.6 10.35698472
4.580725161 75.6 10.00084781
5.914778307 75.6 10.44104389
7.920245351 75.6 11.54425024
8.881505978 75.6 10.82214635
11.17401999 75.6 11.4516932
11.3581327 75.6 9.797592644
12.15685797 75.6 8.786967862
14.58138637 75.6 8.739746651
14.37879145 75.6 7.017859817
15.86087758 75.6 6.118215621
17.28774935 75.6 5.013354409
16.67334977 75.6 3.316535474
15.90251152 75.6 1.763555317
15.9951811 75.6 0.3926596564
12.97553547 75.6 -0.7971695719
13.84847114 75.6 -2.054226642
10.70233947 75.6 -2.541639191
7.596225445 75.6 -2.509453923
5.51468311 75.6 -2.36395224
1.763842529 75.6 -0.9427934737
0.8382247056 75.6 -0.5453249884
-2.365039283 75.6 1.845694772
-5.861234173 75.6 5.444807982
-7.387148503 75.6 8.150462379
-9.082665621 75.6 11.93755357
-9.629957158 75.6 15.20736417
-10.13185164 75.6 19.52807165
-9.184402377 75.6 22.17310878
-8.75817253 75.6 27.64587517
-6.792138445 75.6 30.24676603
-4.575744089 75.6 33.6906896
-1.717368601 75.6 34.95784097
1.361867249 75.2 36.97492823
4.529194982 75.2 36.72174278
7.456009543 75.2 35.21942535
10.45024838 75.2 34.44985209
12.2534674 75.2 30.64070066
13.93795122 75.2 27.68995334
14.16392143 75.2 22.98659021
13.701084 75.2 18.47377322
14.57314711 75.2 16.48100068
14.48494166 75.2 13.79081089
14.05327011 75.2 11.24747079
13.3035138 75.2 8.889123728
13.14105141 75.2 7.232756581
10.97051707 75.2 4.862895768
8.510465928 75.2 2.927792629
6.790218772 75.2 1.700861259
5.923808509 75.2 0.95314886
2.99187137 75.2 0.2206936908
0.9999247018 75.2 -0.01227153829
-0.9951847267 75.2 0.09801714033
0 75.2 -0
0 75.2 -0
-0.9373390119 75.2 0.3484186802
-2.711967879 75.2 1.28266528
-1.727945712 75.2 1.007076767
-0.8175848132 75.2 0.5758081914
-1.530334531 75.2 1.287663086
-2.828427125 75.2 2.828427125
-1.931494629 75.2 2.295501797
-2.303232766 75.2 3.270339253
-2.014153535 75.2 3.455891424
-1.710220374 75.2 3.615957172
-1.393674721 75.2 3.749356048
-1.333563787 75.2 4.818880329
-1.098239328 75.2 5.898632925
-0.6861199823 75.2 6.966293087
-0.09817230629 75.2 7.999397615
0.5885165088 75.2 7.978323653
1.270865147 75.2 7.898411345
2.186821619 75.2 8.730281279
2.927792629 75.2 8.510465928
4.457654454 75.2 10.05630731
5.786205265 75.2 10.51284113
7.222413029 75.2 10.80910496
8.748032834 75.2 10.9303212
10.34310817 75.2 10.86370624
11.23704592 75.2 9.936236664
12.8513205 75.2 9.531188872
13.62168309 75.2 8.393434923
14.29158882 75.2 7.193781274
14.85609729 75.2 5.941075103
16.26798571 75.2 4.934839513
14.67476056 75.2 3.106670643
14.88719302 75.2 1.836160128
14.98983577 75.2 0.5521083441
13.98313639 75.2 -0.6869474406
12.88173426 75.2 -1.749549211
9.7570213 75.2 -2.191012402
8.579754363 75.2 -2.718053544
4.619397663 75.2 -1.913417162
1.775279241 75.2 -0.9210774219
-0 75.2 0
-3.183347618 75.2 2.422044166
-5.186657877 75.2 4.700912684
-7.486610976 75.2 8.059196988
-9.228473859 75.2 11.82519641
-9.815849792 75.2 15.0880447
-10.84212495 75.2 20.28418908
-9.849801002 75.2 22.97784629
-9.096770472 75.2 27.53631724
-7.393859465 75.2 31.13407847
-5.28229708 75.2 35.61035436
-2.207546507 75.2 35.93225206
0.9325666839 74.8 37.98855511
4.07822167 74.8 36.77455789
7.218341915 74.8 36.28905537
9.748189128 74.8 33.61506818
12.23643124 74.8 31.72175516
13.59710339 74.8 27.85890844
14.90897958 74.8 24.87412969
15.23074429 74.8 21.07188715
14.36980254 74.8 16.65859462
15.03034733 74.8 14.66590124
14.68719861 74.8 12.0534724
14.01801815 74.8 9.617440783
13.92139186 74.8 7.886371076
11.81918378 74.8 5.413584281
10.35698472 74.8 3.705788387
7.735811768 74.8 2.038925277
6.896943497 74.8 1.196733221
3.985250449 74.8 0.3431892494
1 74.8 6.123233996e-17
0.9963126122 74.8 -0.08579731234
0 74.8 -0
-0.966976471 74.8 0.2548656596
-0.9415440652 74.8 0.3368898534
0 74.8 -0
-0.8700869911 74.8 0.4928981922
-0.8245893028 74.8 0.5657318108
-1.546020907 74.8 1.268786568
-1.431461651 74.8 1.396752499
-1.306345686 74.8 1.514417693
-1.171595715 74.8 1.620914397
-1.542308233 74.8 2.57318583
-1.754464954 74.8 3.594697863
-1.439580146 74.8 3.731971195
-1.114078758 74.8 3.841722078
-1.365632254 74.8 6.865496963
-0.6613332438 74.8 5.96344182
-0.1717885997 74.8 6.997891731
0.4292451541 74.8 6.98682679
1.027113321 74.8 6.92423557
1.848464866 74.8 7.783519618
2.823135664 74.8 8.545753625
3.939920401 74.8 9.191138517
5.185364105 74.8 9.701133908
5.998574873 74.8 9.220471761
8.613242268 74.8 11.03684999
8.167211974 74.8 8.79185126
11.85521801 74.8 10.74494328
11.14171666 74.8 8.47715458
12.67280348 74.8 8.024964298
14.20223393 74.8 7.368619375
13.85819299 74.8 5.740251485
14.29959061 74.8 4.53008924
14.63553195 74.8 3.286518602
13.8726369 74.8 1.884129919
14.98193184 74.8 0.7360151149
12.991191 74.8 -0.4784938982
12.90223395 74.8 -1.591338778
9.783173707 74.8 -2.071113762
7.655522686 74.8 -2.322277418
5.571036483 74.8 -2.227903164
2.679672904 74.8 -1.348833989
-0.8513551931 74.8 0.5245896827
-4.016037657 74.8 2.978496522
-5.993091156 74.8 5.299326221
-8.274486537 74.8 8.690964995
-10.6226113 74.8 13.27253289
-11.11140466 74.8 16.62939225
-11.09022676 74.8 20.14961217
-10.13103285 74.8 22.85524389
-9.433998473 74.8 27.42261244
-7.775365757 74.8 31.0410001
-5.71889316 74.8 35.54285105
-2.795453417 74.8 37.89703735
0.4663184549 74.4 37.99713867
3.920685613 74.4 39.80738907
7.13855563 74.4 38.34111401
10.13508478 74.4 36.6234905
11.84623513 74.4 31.86952641
14.53687318 74.4 30.73563597
14.60261313 74.4 25.05521283
14.97101298 74.4 21.25720514
15.45195703 74.4 18.36401437
15.55634919 74.4 15.55634919
15.30334531 74.4 12.87663086
15.53411145 74.4 10.94035564
14.68753855 74.4 8.560152523
12.6558501 74.4 5.985771308
11.24806814 74.4 4.181024163
9.637760658 74.4 2.667127575
7.864843899 74.4 1.464319104
4.975923633 74.4 0.4900857016
3.999698807 74.4 0.04908615314
1.994580913 74.4 -0.1471291272
0.9873014182 74.4 -0.1588581433
0.9700312532 74.4 -0.2429801799
0 74.4 -0
0 74.4 -0
-0.8760700942 74.4 0.4821837721
0 74.4 -0
-0.7807372286 74.4 0.6248594881
-0.724247083 74.4 0.6895405447
-1.324831555 74.4 1.498272789
-1.191398609 74.4 1.606415063
-1.573769048 74.4 2.554065579
-1.348833989 74.4 2.679672904
-1.485268776 74.4 3.714024322
-1.161138709 74.4 3.827761343
-0.8284455048 74.4 3.913269483
-0.612053376 74.4 4.962397673
-0.1840361147 74.4 4.996611923
0.3434737203 74.4 6.991568193
0.9420649595 74.4 6.936318448
1.533708681 74.4 6.82991491
2.416047595 74.4 7.626448323
3.061467459 74.4 7.39103626
4.144848399 74.4 7.988756584
5.884973819 74.4 9.293389218
6.660621455 74.4 8.754205951
8.058707458 74.4 8.891413504
9.524505532 74.4 8.847812971
11.82519641 74.4 9.228473859
10.89692117 74.4 7.089224849
12.3468977 74.4 6.599554316
13.78670778 74.4 5.909880601
15.19245089 74.4 5.018907846
14.59409928 74.4 3.465871624
14.83764765 74.4 2.200957117
13.97365358 74.4 0.8584903082
11.99638582 74.4 -0.2944947423
10.93297667 74.4 -1.21244428
9.807852804 74.4 -1.95090322
7.683444155 74.4 -2.228157515
4.664963994 74.4 -1.799475183
1.797348931 74.4 -0.8772324771
-0 74.4 0
-4.052285991 74.4 2.928989287
-6.814879619 74.4 5.878555587
-9.078891242 74.4 9.304500729
-10.15029255 74.4 12.36816725
-11.31463622 74.4 16.49178606
-11.33665842 74.4 20.0120008
-10.82716856 74.4 23.63836756
-10.44358546 74.4 29.18786602
-8.665432427 74.4 32.87720002
-6.154627995 74.4 35.46999513
-3.260297869 74.4 37.85987926
0 74 40
3.431892494 74 39.85250449
6.667513662 74 38.42582805
9.430029405 74 35.77812943
12.46492458 74 34.83713041
14.15860504 74 30.91171143
14.29404757 74 25.23252274
15.8404907 74 23.08850048
16.49422539 74 20.09827179
16.06265374 74 16.46180898
15.90138578 74 13.7166297
16.20914397 74 11.71595715
15.43911498 74 9.253849395
14.37879145 74 7.017859817
11.19591359 74 4.318740438
10.56473571 74 3.063716583
8.827067524 74 1.755812898
5.96344182 74 0.6613332438
3.998795275 74 0.09816491409
2.994354339 74 -0.1839622089
1.97835302 74 -0.2934609489
1.945879904 74 -0.4621162166
0.9495281806 74 -0.3136817404
0 74 -0
0 74 -0
0.8382247056 74 -0.5453249884
0 74 -0
0 74 -0
-0.6715589548 74 0.7409511254
-1.211022083 74 1.591673809
-1.60499286 74 2.534560696
-0.9210774219 74 1.775279241
-1.148050297 74 2.771638598
-1.208023797 74 3.813224161
-1.095506201 74 4.87851065
-0.4037421255 74 2.972707906
-0.2453383716 74 4.993977281
0.1840361147 74 4.996611923
0.8568747264 74 6.947356742
1.242668257 74 5.869904224
2.612562095 74 8.612463022
3.341854746 74 8.356554724
4.046501967 74 8.039018711
5.245896827 74 8.513551931
6.552692349 74 8.835282846
7.948989331 74 8.989636734
9.415212078 74 8.964027082
10.14958397 74 8.123173346
11.64057457 74 7.777983262
12.26498132 74 6.750572809
12.79893658 74 5.673378396
13.23850256 74 4.55434409
13.58043754 74 3.401722519
13.82221985 74 2.224014007
12.96477594 74 0.9563393268
11.99909642 74 -0.1472584594
11.94221672 74 -1.176205684
9.831054874 74 -1.83039888
6.746432461 74 -1.866989302
5.624034071 74 -2.090512081
2.711967879 74 -1.28266528
-0.8639728561 74 0.5035383837
-4.087924066 74 2.879040957
-6.121338125 74 5.150652343
-9.192388155 74 9.192388155
-9.657473143 74 11.47750898
-10.94035564 74 15.53411145
-11.58138283 74 19.87137569
-11.54398752 74 24.40771091
-10.45256041 74 28.12017036
-8.801520997 74 31.80461017
-6.589435966 74 35.39179755
-3.528617052 74 35.82665016
-0.4908615314 74 39.99698807
2.942582544 73.6 39.89161827
6.036609447 73.6 37.51745389
9.476227016 73.6 37.83121887
12.03648081 73.6 34.98747104
13.77820468 73.6 31.08313169
15.42988071 73.6 28.03424301
15.00039629 73.6 22.44967953
16.87120618 73.6 21.07990517
15.85943253 73.6 16.65768291
15.73186428 73.6 13.91073133
16.06415063 73.6 11.91398609
15.32439348 73.6 9.442614288
14.29158882 73.6 7.193781274
13.92759121 73.6 5.569757909
11.48328403 73.6 3.483416127
8.804856336 73.6 1.864002386
6.947356742 73.6 0.8568747264
4.996611923 73.6 0.1840361147
3.995181825 73.6 -0.1962706973
1.981805271 73.6 -0.269161417
1.95140426 73.6 -0.4382024803
0.9533060404 73.6 -0.3020059493
0.9238795325 73.6 -0.3826834324
0.8876396204 73.6 -0.460538711
0 73.6 -0
0 73.6 -0
0 73.6 -0
-1.361201996 73.6 1.465308543
-1.230463181 73.6 1.576692855
-1.090649977 73.6 1.676449411
-0.9427934737 73.6 1.763842529
-0.7879840801 73.6 1.838227703
-0.6273634808 73.6 1.899056361
-0.6931743248 73.6 2.918819857
-0.7336523723 73.6 4.94588255
-0.3066036815 73.6 4.990590565
0.1227061426 73.6 4.998494093
0.5511110365 73.6 4.96953485
1.170541932 73.6 5.884711682
1.949637826 73.6 6.723013636
2.879160292 73.6 7.463942391
3.07031367 73.6 6.29072126
5.141027442 73.6 8.5772861
5.857978575 73.6 8.104571983
6.53172843 73.6 7.572088465
8.588769903 73.6 8.380514993
9.27612544 73.6 7.61271941
10.71966094 73.6 7.35451354
12.18121788 73.6 6.900574691
11.81918378 73.6 5.413584281
13.18161691 73.6 4.716457947
13.53767059 73.6 3.568119234
13.79388699 73.6 2.393466443
12.95206396 73.6 1.11536506
11 73.6 2.020667219e-15
11.95575135 73.6 -1.029567748
9.852776424 73.6 -1.709618888
7.735811768 73.6 -2.038925277
4.707720326 73.6 -1.684449267
1.818335966 73.6 -0.8328591202
-0.8700869911 73.6 0.4928981922
-4.122946514 73.6 2.828659054
-6.95709408 73.6 5.709539557
-8.588769903 73.6 8.380514993
-10.45076549 73.6 12.11534154
-11.13015929 73.6 15.39868677
-11.82436312 73.6 19.72775803
-11.4040222 73.6 23.36553611
-10.43695606 73.6 27.05679117
-9.469669439 73.6 32.65463766
-7.023251593 73.6 35.30827009
-4.188443877 73.6 37.76846486
-0.9816491409 73.6 39.98795275
2.452829452 73.2 39.92472452
5.722488504 73.2 38.57788389
8.780208115 73.2 36.97171818
11.60622439 73.2 35.13254268
13.39572936 73.2 31.24987096
15.08469558 73.2 28.22148046
15.26909968 73.2 23.47029176
17.22648454 73.2 22.07369997
16.33442395 73.2 17.58370252
16.30092476 73.2 14.77429701
15.91673809 73.2 12.11022083
16.05221774 73.2 10.16495478
15.08987355 73.2 7.829158086
13.85819299 73.2 5.740251485
11.43967248 73.2 3.624071392
9.7570213 73.2 2.191012402
6.936318448 73.2 0.9420649595
4.993977281 73.2 0.2453383716
3.997289538 73.2 -0.1472288918
1.984959069 73.2 -0.2448213504
0.9783173707 73.2 -0.2071113762
1.913880671 73.2 -0.5805693545
0 73.2 -0
0.8932243012 73.2 -0.4496113297
0.8513551931 73.2 -0.5245896827
0.8032075315 73.2 -0.5956993045
0 73.2 -0
-0.6895405447 73.2 0.724247083
-0.6248594881 73.2 0.7807372286
-1.111140466 73.2 1.662939225
-0.4821837721 73.2 0.8760700942
-0.405241314 73.2 0.9142097557
-1.301241169 73.2 3.782429302
-0.9719207196 73.2 3.880125013
-0.6354325733 73.2 3.949205673
-0.2942582544 73.2 3.989161827
0.04908615314 73.2 3.999698807
0.4900857016 73.2 4.975923633
1.098239328 73.2 5.898632925
1.600276545 73.2 5.782656395
2.438930762 73.2 6.561373083
3.420440747 73.2 7.231914345
4.02830707 73.2 6.911782849
6.333890106 73.2 8.993432945
7.082146972 73.2 8.416839922
9.192388155 73.2 9.192388155
9.182007187 73.2 7.725978515
11.44618738 73.2 8.06131468
12.09561999 73.2 7.049537372
11.75186081 73.2 5.558216215
13.12274617 73.2 4.877861523
11.56531279 73.2 3.20055309
12.78037134 73.2 2.379518543
11.94221672 73.2 1.176205684
11.99909642 73.2 0.1472584594
9.972904567 73.2 -0.735645636
8.885712763 73.2 -1.42972329
6.790218772 73.2 -1.700861259
3.782429302 73.2 -1.301241169
1.828419511 73.2 -0.810482628
-0.8760700942 73.2 0.4821837721
-4.988817674 73.2 3.333421398
-6.245897829 73.2 4.998875905
-8.690964995 73.2 8.274486537
-10.59865244 73.2 11.98618231
-11.91398609 73.2 16.06415063
-11.54097302 73.2 18.72981425
-12.1395059 73.2 24.11705613
-11.13951582 73.2 27.85518241
-9.869679027 73.2 32.53597141
-7.456009543 73.2 35.21942535
-4.529194982 73.2 36.72174278
-1.472288918 73.2 39.97289538
1.962706973 72.8 39.95181825
5.517809049 72.8 40.62700805
8.764049606 72.8 39.0280852
11.47622607 72.8 36.22562953
14.159287 72.8 34.1835427
15.19777746 72.8 29.29210747
16.58492622 72.8 26.19046052
16.95430916 72.8 22.28343333
16.78897387 72.8 18.52377813
16.85104825 72.8 15.65382295
15.76692855 72.8 12.30463181
15.92626941 72.8 10.36117478
15.87458276 72.8 8.485141263
13.78670778 72.8 5.909880601
12.34386635 72.8 4.077862625
10.70233947 72.8 2.541639191
7.91341208 72.8 1.173843796
5.988708677 72.8 0.3679244178
4.998494093 72.8 -0.1227061426
3.97562788 72.8 -0.4408888292
2.942355841 72.8 -0.585270966
0.9604305194 72.8 -0.2785196894
1.865985598 72.8 -0.7197900731
0.8986744657 72.8 -0.4386162385
0.85772861 72.8 -0.5141027442
0.8104571983 72.8 -0.5857978575
2.27162654 72.8 -1.959518529
0.6983762494 72.8 -0.7157308253
0 72.8 -0
-0.5657318108 72.8 0.8245893028
-0.4928981922 72.8 0.8700869911
-0.4164295601 72.8 0.9091679831
-1.01066956 72.8 2.824632196
-0.7645969788 72.8 2.900929413
-0.5128856663 72.8 2.955832927
-0.3431892494 72.8 3.985250449
-6.123233996e-16 72.8 5
0.4289865617 72.8 4.981563061
1.025771333 72.8 5.911665854
1.529193958 72.8 5.801858826
2.02133912 72.8 5.649264391
3.331436481 72.8 7.273343865
4.43608373 72.8 7.83078292
5.657318108 72.8 8.245893028
6.343932842 72.8 7.730104534
8.380514993 72.8 8.588769903
9.086506158 72.8 7.838074115
8.915029181 72.8 6.443776432
12.00820054 72.8 7.197438419
11.68276805 72.8 5.702011101
13.06189918 72.8 5.038530511
12.48559675 72.8 3.620755962
13.73099393 72.8 2.731264508
12.92079061 72.8 1.432888695
10.99668701 72.8 0.2699535138
9.981181129 72.8 -0.613207363
8.90258859 72.8 -1.32057427
5.837639713 72.8 -1.38634865
4.747640903 72.8 -1.568408702
1.838227703 72.8 -0.7879840801
-0 72.8 0
-4.191123528 72.8 2.726624942
-7.883464276 72.8 6.152315906
-9.524505532 72.8 8.847812971
-11.41650223 72.8 12.59616913
-11.50470979 72.8 15.12090119
-12.30494526 72.8 19.431632
-12.4345452 72.8 23.96626975
-11.48050297 72.8 27.71638598
-10.26820228 72.8 32.41240537
-7.887644646 72.8 35.12527668
-5.114066923 72.8 37.65430015
-1.962706973 72.8 39.95181825
1.509096141 72.4 40.97221777
5.018837683 72.4 40.69166092
8.077343671 72.4 38.15437746
11.61138709 72.4 38.27761343
13.73873618 72.4 34.35472498
15.28678521 72.4 30.36962624
16.26228016 72.4 26.39201099
16.67958053 72.4 22.48981088
16.56039444 72.4 18.72840986
17.38192999 72.4 16.54897307
16.3954818 72.4 13.12204925
16.62939225 72.4 11.11140466
16.64533179 72.4 9.16149167
14.62735609 72.4 6.483861024
14.18410988 72.4 4.879654382
11.64037504 72.4 2.915762159
8.885712763 72.4 1.42972329
6.981033197 72.4 0.5149519452
4.999623509 72.4 -0.06135769143
2.98555418 72.4 -0.294051421
3.93242195 72.4 -0.7321595518
1.927552132 72.4 -0.5334255149
1.874678024 72.4 -0.6968373605
0.9039892931 72.4 -0.4275550934
0.8639728561 72.4 -0.5035383837
0.8175848132 72.4 -0.5758081914
0.7651672656 72.4 -0.6438315429
0.7071067812 72.4 -0.7071067812
0 72.4 -0
0 72.4 -0
-1.007076767 72.4 1.727945712
-0.8551101869 72.4 1.807978586
-0.3484186802 72.4 0.9373390119
-0.5334255149 72.4 1.927552132
-0.3660797759 72.4 1.966210975
-0.294051421 72.4 2.98555418
-0.04908615314 72.4 3.999698807
0.367822818 72.4 4.986452283
0.7942907167 72.4 4.936507091
1.700861259 72.4 6.790218772
2.277172045 72.4 6.619251278
2.431447884 72.4 5.485258534
3.857470177 72.4 7.008560754
5.000132097 72.4 7.483226511
6.248594881 72.4 7.807372286
6.895405447 72.4 7.24247083
8.989636734 72.4 7.948989331
9.638490378 72.4 7.148391654
11.06761751 72.4 6.819665875
11.61191592 72.4 5.844947286
12.07057905 72.4 4.827123521
13.3971647 72.4 4.063985482
11.73980845 72.4 2.485336514
12.90223395 72.4 1.591338778
10.99254623 72.4 0.4048794524
10.98675002 72.4 -0.5397444176
8.918123719 72.4 -1.211226377
7.80561704 72.4 -1.752809921
5.719836242 72.4 -1.812035696
2.771638598 72.4 -1.148050297
-0.8876396204 72.4 0.460538711
-4.224267826 72.4 2.674988099
-7.162532141 72.4 5.449599373
-8.891413504 72.4 8.058707458
-10.88961596 72.4 11.72246835
-11.68940022 72.4 14.97858212
-12.54247473 72.4 19.27916823
-12.25631516 72.4 22.92995287
-11.8197612 72.4 27.57341555
-10.66517917 72.4 32.28395814
-8.318091898 72.4 35.02583828
-5.429027555 72.4 36.59953087
-2.514150188 72.4 40.92284263
0.9816491409 72 39.98795275
4.519110499 72 40.75018577
7.998703203 72 40.2121965
11.41930726 72 39.3776513
12.95622132 72 33.58774076
15.35156835 72 31.4536063
15.93718507 72 26.58958691
16.98813787 72 23.50325875
17.63566676 72 20.44463886
17.17753981 72 16.76102999
17.77924043 72 14.59104554
17.31637536 72 11.88036803
15.66156584 72 8.87216746
15.45585571 72 7.079302522
14.12316098 72 5.053347801
11.60371765 72 3.058387915
9.852776424 72 1.709618888
6.974188285 72 0.6005811864
5 72 3.061616998e-16
3.985250449 72 -0.3431892494
3.94111057 72 -0.683847555
0.966976471 72 -0.2548656596
2.824632196 72 -1.01066956
1.818335966 72 -0.8328591202
1.740173982 72 -0.9857963845
0 72 -0
0.7730104534 72 -0.6343932842
-0.7157308253 72 0.6983762494
0 72 -0
0 72 -0
-0.5141027442 72 0.85772861
-0.4386162385 72 0.8986744657
-0.7197900731 72 1.865985598
0 72 -0
-0.195090322 72 0.9807852804
-0.3306666219 72 2.98172091
-0.09816491409 72 3.998795275
0.2452829452 72 3.992472452
0.7336523723 72 4.94588255
1.617406758 72 6.810579665
1.882090442 72 5.697169084
2.75794428 72 6.433796962
3.771173895 72 7.055370115
4.362599907 72 6.705797644
5.537084315 72 7.095117849
7.486610976 72 8.059196988
8.891413504 72 8.058707458
8.754205951 72 6.660621455
11.82794991 72 7.489966678
11.53931507 72 5.987003242
12.93431346 72 5.357568053
12.39297852 72 3.926077341
12.68412769 72 2.848316122
11.89083163 72 1.614968502
10.98675002 72 0.5397444176
9.993223846 72 -0.3680722294
7.939836277 72 -0.9792854016
7.826538966 72 -1.65689101
4.784701679 72 -1.451423386
1.857012161 72 -0.7426343879
-0 72 0
-3.405420772 72 2.098358731
-7.228867783 72 5.36129374
-8.989636734 72 7.948989331
-11.03264872 72 11.58795333
-11.24747079 72 14.05327011
-12.77811536 72 19.12380108
-12.53677807 72 22.77782245
-12.15723942 72 27.42629267
-10.73523964 72 31.20504174
-8.747286477 72 34.92112512
-6.036609447 72 37.51745389
-3.016147108 72 40.88890872
0.5031330697 71.6 40.99691278
4.018702754 71.6 40.80257379
7.504635406 71.6 40.30732498
10.93522306 71.6 39.5148187
12.89149117 71.6 34.68154344
15.39198336 71.6 32.54361455
16.11322828 71.6 27.6471314
16.12262936 71.6 22.89237477
16.73962012 71.6 19.89434891
17.67766953 71.6 17.67766953
17.59884711 71.6 14.80812549
17.16928108 71.6 12.09197202
16.41548427 71.6 9.567229291
17.17579657 71.6 8.123546775
14.99742419 71.6 5.574698884
12.52908886 71.6 3.467265847
9.831054874 71.6 1.83039888
6.966293087 71.6 0.6861199823
5.999548211 71.6 0.07362922971
3.989161827 71.6 -0.2942582544
3.949205673 71.6 -0.6354325733
1.940062506 71.6 -0.4859603598
2.836821976 71.6 -0.9759308765
1.828419511 71.6 -0.810482628
1.752140188 71.6 -0.9643675442
1.662939225 71.6 -1.111140466
0.7807372286 71.6 -0.6248594881
0.724247083 71.6 -0.6895405447
-0.6624157776 71.6 0.7491363945
0.5956993045 71.6 -0.8032075315
-0.5245896827 71.6 0.8513551931
0 71.6 -0
-0.371317194 71.6 0.9285060805
-0.2902846773 71.6 0.9569403357
-0.4142227524 71.6 1.956634741
-0.3672320256 71.6 2.977438604
-0.1104216688 71.6 2.997967154
0.1962706973 71.6 3.995181825
0.6729035425 71.6 4.954513177
1.095506201 71.6 4.87851065
1.812035696 71.6 5.719836242
2.296100594 71.6 5.543277195
2.763232266 71.6 5.325837722
3.744983339 71.6 5.913974957
5.449599373 71.6 7.162532141
6.715589548 71.6 7.409511254
8.059196988 71.6 7.486610976
10.24850356 71.6 7.998010678
10.05869647 71.6 6.543899861
11.46497644 71.6 6.128157579
11.94848007 71.6 5.121896521
10.44480999 71.6 3.450499144
11.67527943 71.6 2.772697299
11.87011812 71.6 1.760765693
9.981181129 71.6 0.613207363
10.99668701 71.6 -0.2699535138
8.94516273 71.6 -0.9919998656
5.884711682 71.6 -1.170541932
4.802152597 71.6 -1.392598447
2.798978397 71.6 -1.07968511
-0 71.6 0
-4.28864305 71.6 2.570513721
-6.483657586 71.6 4.68638286
-9.086506158 71.6 7.838074115
-11.17401999 71.6 11.4516932
-12.0534724 71.6 14.68719861
-13.57756346 71.6 19.79014327
-12.32245481 71.6 21.75217478
-12.4928868 71.6 27.27503949
-11.11736516 71.6 31.07095415
-8.920298086 71.6 33.84417649
-6.667513662 71.6 38.42582805
-3.517689806 71.6 40.8488171
0 71.2 42
3.689284431 71.2 42.84144232
7.180399328 71.2 41.38166098
10.44949204 71.2 39.64603531
13.13870428 71.2 36.72021854
15.40789372 71.2 33.63921537
16.75853854 71.2 29.5829577
16.97195432 71.2 24.73767908
17.12861867 71.2 20.87128224
17.45940624 71.2 17.89327063
17.41580347 71.2 15.02297539
17.83005836 71.2 12.88755286
17.1545722 71.2 10.28205488
16.17614038 71.2 7.895092294
14.92788478 71.2 5.758320585
12.48559675 71.2 3.620755962
10.78863808 71.2 2.145993542
7.95125576 71.2 0.8817776584
5.998192912 71.2 0.1472473711
4.990590565 71.2 -0.3066036815
3.95670604 71.2 -0.5869218978
2.918819857 71.2 -0.6931743248
2.848584542 71.2 -0.9410452212
1.838227703 71.2 -0.7879840801
2.645763793 71.2 -1.41419021
1.676449411 71.2 -1.090649977
1.576692855 71.2 -1.230463181
0.7326542717 71.2 -0.6806009978
1.34311791 71.2 -1.481902251
0.6055110414 71.2 -0.7958369046
0 71.2 -0
0 71.2 -0
0 71.2 -0
-0.3020059493 71.2 0.9533060404
0 71.2 -0
-0.538322834 71.2 3.963610542
-0.147203023 71.2 2.996386369
0.1472288918 71.2 3.997289538
0.4896427008 71.2 3.969918138
1.035556881 71.2 4.891586854
1.451423386 71.2 4.784701679
2.599220358 71.2 6.499542563
2.697667978 71.2 5.359345807
4.721307144 71.2 7.662196738
4.765594436 71.2 6.425660252
6.624157776 71.2 7.491363945
7.966717912 71.2 7.584945992
9.368846743 71.2 7.498313858
9.146165735 71.2 6.111272563
10.51284113 71.2 5.786205265
10.97051707 71.2 4.862895768
12.29289523 71.2 4.229033798
11.64037504 71.2 2.915762159
10.8603156 71.2 1.747439577
10.97019502 71.2 0.8092101996
9.999247018 71.2 -0.1227153829
8.95666254 71.2 -0.882154263
6.881738412 71.2 -1.281279216
4.818880329 71.2 -1.333563787
2.812017036 71.2 -1.045256041
-0 71.2 0
-4.319864281 71.2 2.517691919
-6.540678505 71.2 4.606465531
-9.182007187 71.2 7.725978515
-11.3137085 71.2 11.3137085
-12.87663086 71.2 15.30334531
-13.2435884 71.2 18.8044507
-13.09199798 71.2 22.46329426
-12.8266528 71.2 27.11967879
-11.49781645 71.2 30.93218739
-9.601659269 71.2 34.69593837
-6.955515742 71.2 37.35800852
-4.018702754 71.2 40.80257379
-0.5276761463 71.2 42.99676218
3.236840798 70.8 43.88078009
6.830900163 70.8 42.45396098
10.20516756 70.8 40.74131263
13.01241169 70.8 37.82429302
14.99392862 70.8 33.82576096
15.91206448 70.8 28.91031311
17.22267722 70.8 25.77555798
16.87120618 70.8 21.07990517
17.23851362 70.8 18.10617707
18.72840986 70.8 16.56039444
18.47377322 70.8 13.701084
18.72981425 70.8 11.54097302
16.07803742 70.8 8.093003934
17.64161553 70.8 7.055026685
13.3971647 70.8 4.063985482
11.73980845 70.8 2.485336514
8.932315811 70.8 1.101696077
6.995256692 70.8 0.2576505606
5.992772737 70.8 -0.294406046
4.954513177 70.8 -0.6729035425
3.90280852 70.8 -0.8764049606
2.859918121 70.8 -0.906017848
3.69551813 70.8 -1.530733729
2.662918861 70.8 -1.381616133
1.68970713 70.8 -1.06999524
2.387510714 70.8 -1.816533124
1.481902251 70.8 -1.34311791
0.6806009978 70.8 -0.7326542717
0.6152315906 70.8 -0.7883464276
0.5453249884 70.8 -0.8382247056
0 70.8 -0
0 70.8 -0
0 70.8 -0
-0.2310581083 70.8 0.9729399522
-0.2934609489 70.8 1.97835302
-0.0613207363 70.8 0.9981181129
0.07362368557 70.8 2.999096456
0.4408888292 70.8 3.97562788
0.7803612881 70.8 3.923141122
1.114078758 70.8 3.841722078
2.159370219 70.8 5.597956793
3.07031367 70.8 6.29072126
3.598719209 70.8 6.00410027
4.100585002 70.8 5.673200388
6.53172843 70.8 7.572088465
7.873039078 70.8 7.682138743
8.503114987 70.8 6.978326126
9.070482331 70.8 6.223049919
9.570956902 70.8 5.421880115
11.81918378 70.8 5.413584281
11.29852878 70.8 4.042678241
10.63674118 70.8 2.803522256
10.83805407 70.8 1.880580776
9.963126122 70.8 0.8579731234
10 70.8 1.836970199e-15
8.96681351 70.8 -0.7721758111
5.911665854 70.8 -1.025771333
4.834882355 70.8 -1.274328298
2.824632196 70.8 -1.01066956
-1.818335966 70.8 0.8328591202
-3.480347964 70.8 1.971592769
-7.421303725 70.8 5.091586297
-10.04913589 70.8 8.247112694
-11.4516932 70.8 11.17401999
-11.75711117 70.8 13.62975924
-12.88755286 70.8 17.83005836
-13.36667135 70.8 22.30094386
-12.71987092 70.8 26.06155951
-12.23643124 70.8 31.72175516
-10.02670882 70.8 34.5754987
-7.803612881 70.8 39.23141122
-4.519110499 70.8 40.75018577
-1.055272826 70.8 42.9870492
2.698112397 70.4 43.91719697
6.309410402 70.4 42.53458993
9.935498656 70.4 41.83641794
12.54726962 70.4 37.98112722
14.97169752 70.4 34.92632636
16.49888579 70.4 30.86724425
16.90507464 70.4 25.98496587
17.84171613 70.4 22.8620464
17.69562594 70.4 19.04901106
17.78282701 70.4 16.11741492
16.712575 70.4 12.71573187
16.8970713 70.4 10.6999524
17.75279241 70.4 9.210774219
15.70595205 70.4 6.50561835
14.29959061 70.4 4.53008924
11.70842556 70.4 2.629214882
8.918123719 70.4 1.211226377
7.99036365 70.4 0.3925413946
4.996611923 70.4 -0.1840361147
3.969918138 70.4 -0.4896427008
3.913269483 70.4 -0.8284455048
1.913880671 70.4 -0.5805693545
2.785518241 70.4 -1.113951582
2.679672904 70.4 -1.348833989
2.554065579 70.4 -1.573769048
2.409622594 70.4 -1.787097913
1.498272789 70.4 -1.324831555
1.379081089 70.4 -1.448494166
0 70.4 -0
1.111140466 70.4 -1.662939225
0.4821837721 70.4 -0.8760700942
0 70.4 -0
0 70.4 -0
-0.4859603598 70.4 1.940062506
-0.3177162867 70.4 1.974602836
-0.1471291272 70.4 1.994580913
0.03681461486 70.4 2.999774106
0.294051421 70.4 2.98555418
0.5491196639 70.4 2.949316462
1.333563787 70.4 4.818880329
1.393674721 70.4 3.749356048
2.565330561 70.4 5.423935759
3.021230302 70.4 5.183837137
4.606465531 70.4 6.540678505
5.794483886 70.4 6.886505391
6.363961031 70.4 6.363961031
9.182007187 70.4 7.725978515
8.175848132 70.4 5.758081914
9.503701417 70.4 5.538922221
11.75186081 70.4 5.558216215
11.24806814 70.4 4.181024163
9.637760658 70.4 2.667127575
9.831054874 70.4 1.83039888
9.951847267 70.4 0.9801714033
7.999397615 70.4 0.09817230629
6.981033197 70.4 -0.5149519452
5.923808509 70.4 -0.95314886
4.850156266 70.4 -1.2149009
1.891214651 70.4 -0.6506205843
-0.9142097557 70.4 0.405241314
-4.380350471 70.4 2.41091886
-7.483226511 70.4 5.000132097
-9.368846743 70.4 7.498313858
-11.58795333 70.4 11.03264872
-13.24831555 70.4 14.98272789
-13.701084 70.4 18.47377322
-13.11474207 70.4 21.28387983
-12.58911723 70.4 25.01028043
-12.62478459 70.4 31.56920674
-10.1599637 70.4 33.49291175
-8.077343671 70.4 38.15437746
-5.018837683 70.4 40.69166092
-1.582710586 70.4 42.97086254
2.109909996 70 42.94820462
5.921551174 70 43.59971596
9.202252087 70 40.97948946
12.38224392 70 39.08554765
14.159287 70 34.1835427
16.11885488 70 31.06738671
17.11992384 70 27.03531409
17.5598202 70 23.07927023
16.78897387 70 18.52377813
18.31635679 70 17.01502494
18.13196784 70 14.15032658
18.44094352 70 11.99714975
17.63842529 70 9.427934737
16.54404933 70 7.091856721
16.14197907 70 5.332589587
12.64821938 70 3.003755408
8.90258859 70 1.32057427
8.983063016 70 0.5518866267
5.998192912 70 -0.1472473711
4.96953485 70 -0.5511110365
2.942355841 70 -0.585270966
1.920861039 70 -0.5570393788
2.798978397 70 -1.07968511
3.594697863 70 -1.754464954
2.57318583 70 -1.542308233
0.8104571983 70 -0.5857978575
1.514417693 70 -1.306345686
0.6983762494 70 -0.7157308253
0.6343932842 70 -0.7730104534
0.5657318108 70 -0.8245893028
0.4928981922 70 -0.8700869911
0 70 -0
0.3368898534 70 -0.9415440652
-0.5097313192 70 1.933952942
-0.3419237775 70 1.970555285
-0.1715946247 70 1.992625224
-3.673940397e-16 70 3
0.257391937 70 2.988937837
0.683847555 70 3.94111057
1.019462638 70 3.867905884
1.684449267 70 4.707720326
2.498577361 70 5.455007899
2.957389153 70 5.220521947
3.960122675 70 5.772125119
5.075146273 70 6.184083627
6.285386245 70 6.441577428
8.329297312 70 7.184901272
8.104571983 70 5.857978575
9.43501471 70 5.655130186
10.78409359 70 5.263394862
10.26292079 70 3.958845402
9.604305194 70 2.785196894
9.807852804 70 1.95090322
9.9390697 70 1.102222073
7.99759055 70 0.1963298282
6.98682679 70 -0.4292451541
4.94588255 70 -0.7336523723
4.864699761 70 -1.155290541
0.9495281806 70 -0.3136817404
-0 70 0
-5.291527586 70 2.828380421
-6.705797644 70 4.362599907
-10.24850356 70 7.998010678
-11.72246835 70 10.88961596
-13.4311791 70 14.81902251
-13.32124291 70 17.5084119
-13.3749405 70 21.12133913
-12.89508391 70 24.85390937
-12.24586984 70 29.56414504
-10.57020823 70 33.36571141
-8.325847126 70 37.07668094
-5.517809049 70 40.62700805
-2.109909996 70 42.94820462
1.619517809 69.6 43.97018492
5.386069709 69.6 43.66909952
8.905789176 69.6 42.06764694
11.90167177 69.6 39.23455377
14.48137056 69.6 36.21173714
15.73639654 69.6 31.26285054
16.78686985 69.6 27.24336618
16.67958053 69.6 22.48981088
17.22281022 69.6 19.47754626
18.83042416 69.6 17.92805416
17.17621903 69.6 13.74690874
19.12380108 69.6 12.77811536
17.52140188 69.6 9.643675442
17.36998536 69.6 7.699584966
16.07532453 69.6 5.530274967
13.58043754 69.6 3.401722519
11.84761702 69.6 1.90629772
8.97561411 69.6 0.6620810724
5.999548211 69.6 -0.07362922971
3.980738907 69.6 -0.3920685613
4.915527437 69.6 -0.9151994398
4.818880329 69.6 -1.333563787
2.812017036 69.6 -1.045256041
2.711967879 69.6 -1.28266528
1.727945712 69.6 -1.007076767
1.635169626 69.6 -1.151616383
1.530334531 69.6 -1.287663086
0.7071067812 69.6 -0.7071067812
0 69.6 -0
0.5758081914 69.6 -0.8175848132
1.007076767 69.6 -1.727945712
0 69.6 -0
-0.3484186802 69.6 0.9373390119
0 69.6 -0
-0.183039888 69.6 0.9831054874
-0.1960342807 69.6 1.990369453
-0.03681461486 69.6 2.999774106
0.2206936908 69.6 2.99187137
0.47657443 69.6 2.961904254
0.9719207196 69.6 3.880125013
1.626551461 69.6 4.728036627
2.02620657 69.6 4.571048779
2.41091886 69.6 4.380350471
3.333421398 69.6 4.988817674
4.374016417 69.6 5.4651606
5.516324358 69.6 5.793976664
6.742227551 69.6 5.961741998
8.835282846 69.6 6.552692349
8.513551931 69.6 5.245896827
9.825467313 69.6 4.945724626
9.285060805 69.6 3.71317194
10.52634369 69.6 3.19313145
9.783173707 69.6 2.071113762
9.924795346 69.6 1.224106752
7.994579077 69.6 0.2944577835
7.99036365 69.6 -0.3925413946
5.945415813 69.6 -0.807484251
2.92710639 69.6 -0.6573037205
1.906612081 69.6 -0.6040118986
-0 69.6 0
-3.550558482 69.6 1.842154844
-6.758828522 69.6 4.279980959
-10.34587976 69.6 7.871643538
-11.85521801 69.6 10.74494328
-12.93141896 69.6 13.92043116
-14.15032658 69.6 18.13196784
-14.1784497 69.6 21.79384234
-14.1419021 69.6 26.45763793
-12.60774528 69.6 29.41164325
-10.97886091 69.6 33.23348632
-9.011266223 69.6 37.94465814
-6.015949453 69.6 40.55623691
-2.636791661 69.6 42.91907885
1.055272826 69.2 42.9870492
4.849777121 69.2 43.73190668
8.193793525 69.2 41.19298178
11.41930726 69.2 39.3776513
14.03590642 69.2 36.38671915
15.35156835 69.2 31.4536063
16.45128781 69.2 27.44731552
16.40234001 69.2 22.69280155
17.63566676 69.2 20.44463886
17.89327063 69.2 17.45940624
18.55225088 69.2 15.22543882
18.14096466 69.2 12.44609984
18.27182681 69.2 10.35086204
16.3650237 69.2 7.495732082
15.06470504 69.2 5.390237654
13.53767059 69.2 3.568119234
11.82333171 69.2 2.051542665
8.96681351 69.2 0.7721758111
7 69.2 4.286263797e-16
4.981563061 69.2 -0.4289865617
3.94111057 69.2 -0.683847555
3.867905884 69.2 -1.019462638
1.88308813 69.2 -0.6737797068
2.727503949 69.2 -1.24928868
2.610260973 69.2 -1.478694577
1.649178606 69.2 -1.131463622
1.546020907 69.2 -1.268786568
0.7157308253 69.2 -0.6983762494
0.653172843 69.2 -0.7572088465
0.5857978575 69.2 -0.8104571983
0.5141027442 69.2 -0.85772861
0 69.2 -0
-0.3598950365 69.2 0.9329927988
0 69.2 -0
-0.390180644 69.2 1.961570561
-0.3306666219 69.2 2.98172091
-0.07362368557 69.2 2.999096456
0.1839622089 69.2 2.994354339
