# .PCD v0.7 - Point Cloud Data file format
VERSION 0.7
FIELDS x y z
SIZE 4 4 4
TYPE F F F
COUNT 1 1 1
WIDTH 1645
HEIGHT 1
VIEWPOINT 0 0 0 1 0 0 0
POINTS 1645
DATA ascii
-17.60271882 89.6 -11.45182476
-14.97858212 89.6 -11.68940022
-12.45512262 89.6 -11.57021696
-8.730266413 89.6 -9.63236463
-7.266132497 89.6 -9.550042855
-4.814978579 89.6 -7.603682087
-2.302693555 89.6 -4.438198102
-1.148050297 89.6 -2.771638598
-0 89.6 -0
0.2191012402 89.6 0.97570213
0.1345807085 89.6 0.9909026354
-0 89.6 -0
-0.07361444588 89.6 1.998644769
-0.1224106752 89.6 0.9924795346
0.2071113762 89.6 -0.9783173707
1.161138709 89.6 -3.827761343
2.599220358 89.6 -6.499542563
3.596890637 89.6 -7.14579441
6.819665875 89.6 -11.06761751
8.339790263 89.6 -11.24490544
11.923484 89.6 -13.4844551
14.48494166 89.6 -13.79081089
17.17621903 89.6 -13.74690874
19.9552707 89.6 -13.33368559
21.90175235 89.6 -12.0545943
23.76945365 89.6 -10.53627416
25.53139779 89.6 -8.783377888
25.22081258 89.6 -6.317484677
25.66983687 89.6 -4.130311727
22.9376805 89.6 -1.691984963
19.99849404 89.6 0.2454307657
16.91814035 89.6 1.666291386
13.76347682 89.6 2.562558431
6.746432461 89.6 1.866989302
4.68669506 89.6 1.742093401
0.9039892931 89.6 0.4275550934
-0.8639728561 89.6 -0.5035383837
-1.635169626 89.6 -1.151616383
-1.530334531 89.6 -1.287663086
0 89.6 0
3.219157714 89.6 3.825836328
7.485506488 89.6 10.62860257
9.567229291 89.6 16.41548427
10.26132224 89.6 21.69574303
10.10414173 89.6 27.18283135
9.334946512 89.6 33.7321623
6.955515742 89.6 37.35800852
4.116719894 89.6 41.79775852
0.4908615314 89.6 39.99698807
0 89.2 40
3.431892494 89.2 39.85250449
7.180399328 89.2 41.38166098
10.19462638 89.2 38.67905884
12.80181443 89.2 35.77867448
13.74217548 89.2 30.00254344
13.30825119 89.2 23.49234876
12.44609984 89.2 18.14096466
10.15029255 89.2 12.36816725
6.285386245 89.2 6.441577428
1.514417693 89.2 1.306345686
-1.620914397 89.2 -1.171595715
-0.85772861 89.2 -0.5141027442
0.8986744657 89.2 0.4386162385
-0.9329927988 89.2 -0.3598950365
3.841722078 89.2 1.114078758
5.884711682 89.2 1.170541932
10.93297667 89.2 1.21244428
13.99578346 89.2 0.3435771993
18.96424415 89.2 -1.16509399
21.76188322 89.2 -3.228070438
25.29643876 89.2 -6.007510815
23.73820451 89.2 -7.84204351
22.97784629 89.2 -9.849801002
22.92995287 89.2 -12.25631516
20.95561764 89.2 -13.63312471
18.92031426 89.2 -14.76555817
15.38573971 89.2 -14.29262095
13.4311791 89.2 -14.81902251
10.2936877 89.2 -13.52922738
9.094959538 89.2 -14.36251061
5.987003242 89.2 -11.53931507
3.826834324 89.2 -9.238795325
1.812035696 89.2 -5.719836242
0.8764049606 89.2 -3.90280852
0.269161417 89.2 -1.981805271
0 89.2 -0
0.03680722294 89.2 0.9993223846
0.1224106752 89.2 0.9924795346
0.6213341286 89.2 2.934952112
0.2902846773 89.2 0.9569403357
-0 89.2 -0
-0.8992226593 89.2 -1.786448602
-2.098358731 89.2 -3.405420772
-3.574195827 89.2 -4.819245189
-5.961741998 89.2 -6.742227551
-9.415212078 89.2 -8.964027082
-11.71105843 89.2 -9.372892322
-14.13498341 89.2 -9.444693961
-17.52140188 89.2 -9.643675442
-18.28419511 89.2 -8.10482628
-20.80336116 89.2 -7.156826428
-24.25078133 89.2 -6.074504498
-25.66983687 89.2 -4.130311727
-25.92955187 89.2 -1.912678654
-25.99804225 89.2 0.3190599954
-24.87961817 89.2 2.450428508
-23.5945317 89.2 4.392957311
-19.27552132 89.2 5.334255149
-14.99742419 89.2 5.574698884
-10.84787152 89.2 5.130661121
-6.911782849 89.2 4.02830707
-4.905508879 89.2 3.454849149
-2.295501797 89.2 1.931494629
-5.656854249 89.2 5.656854249
-9.0136416 89.2 10.71234172
-12.09197202 89.2 17.16928108
-14.60261313 89.2 25.05521283
-15.81953846 89.2 33.44760385
-12.54307249 89.2 33.74420443
-9.334946512 89.2 33.7321623
-6.22335619 89.2 33.42558657
-3.430599912 89.2 34.83146543
-0.5031330697 89.2 40.99691278
-1.053196247e-14 88.8 43
-3.517689806 88.8 40.8488171
-6.154627995 88.8 35.46999513
-8.920298086 88.8 33.84417649
-11.11736516 88.8 31.07095415
-14.99146416 88.8 32.73004739
-17.74433492 88.8 31.32313168
-19.23488157 88.8 28.03603629
-16.49422539 88.8 20.09827179
-12.57077249 88.8 12.88315486
-7.572088465 88.8 6.53172843
-3.241828793 88.8 2.34319143
-2.57318583 88.8 1.542308233
-4.493372328 88.8 2.193081193
-9.329927988 88.8 3.598950365
-10.56473571 88.8 3.063716583
-14.71177921 88.8 2.92635483
-20.87204637 88.8 2.314666353
-22.99307283 88.8 0.564448256
-24.95295282 88.8 -1.533018408
-26.70776577 88.8 -3.96172281
-26.26937871 88.8 -6.238568924
-24.6877327 88.8 -8.15572525
-22.05873244 88.8 -9.455808961
-20.28418908 88.8 -10.84212495
-17.60271882 88.8 -11.45182476
-14.97858212 88.8 -11.68940022
-13.18777689 88.8 -12.25081796
-10.07338432 88.8 -11.11426688
-7.871643538 88.8 -10.34587976
-5.349976199 88.8 -8.448535652
-2.763232266 88.8 -5.325837722
-1.530733729 88.8 -3.69551813
-0.3020059493 88.8 -0.9533060404
-0.2191012402 88.8 -0.97570213
0.1345807085 88.8 0.9909026354
-0 88.8 -0
-0.03680722294 88.8 0.9993223846
0 88.8 -0
0.2071113762 88.8 -0.9783173707
1.161138709 88.8 -3.827761343
2.599220358 88.8 -6.499542563
4.945724626 88.8 -9.825467313
6.819665875 88.8 -11.06761751
8.935489567 88.8 -12.04811297
11.26106822 88.8 -12.73531871
13.76069458 88.8 -13.10127035
17.17621903 88.8 -13.74690874
19.9552707 88.8 -13.33368559
21.02568226 88.8 -11.57241053
22.85524389 88.8 -10.13103285
25.53139779 88.8 -8.783377888
24.25078133 88.8 -6.074504498
24.68253545 88.8 -3.971453583
21.94039005 88.8 -1.618420399
19.99849404 88.8 0.2454307657
14.9277709 88.8 1.470257105
11.79726585 88.8 2.196478655
6.746432461 88.8 1.866989302
4.68669506 88.8 1.742093401
0.9039892931 88.8 0.4275550934
-0.8639728561 88.8 -0.5035383837
-2.452754439 88.8 -1.727424574
-2.295501797 88.8 -1.931494629
0.7071067812 88.8 0.7071067812
4.5068208 88.8 5.356170859
6.909698297 88.8 9.811017758
8.560152523 88.8 14.68753855
10.68887734 88.8 22.59973233
10.10414173 88.8 27.18283135
8.534808239 88.8 30.84083411
6.772475854 88.8 36.37490303
3.920685613 88.8 39.80738907
0.515404608 88.8 41.99683748
0 88.4 41
3.517689806 88.4 40.8488171
7.351361217 88.4 42.36693862
10.95922336 88.4 41.57998825
12.46492458 88.4 34.83713041
12.90931636 88.4 28.18420748
14.29404757 88.4 25.23252274
11.88036803 88.4 17.31637536
9.515899262 88.4 11.5951568
6.285386245 88.4 6.441577428
2.27162654 88.4 1.959518529
-1.620914397 88.4 -1.171595715
-0.85772861 88.4 -0.5141027442
-0.8986744657 88.4 -0.4386162385
0 88.4 0
2.881291558 88.4 0.8355590682
5.884711682 88.4 1.170541932
9.9390697 88.4 1.102222073
13.99578346 88.4 0.3435771993
17.96612603 88.4 -1.103773253
21.76188322 88.4 -3.228070438
21.40467895 88.4 -5.083278382
23.73820451 88.4 -7.84204351
22.97784629 88.4 -9.849801002
21.16611034 88.4 -11.31352168
20.11739293 88.4 -13.08779972
18.13196784 88.4 -14.15032658
15.38573971 88.4 -14.29262095
13.4311791 88.4 -14.81902251
11.50470979 88.4 -15.12090119
8.559961918 88.4 -13.51765704
5.987003242 88.4 -11.53931507
4.209517756 88.4 -10.16267486
2.416047595 88.4 -7.626448323
1.314607441 88.4 -5.85421278
0.4037421255 88.4 -2.972707906
0 88.4 -0
-0 88.4 -0
-0.1224106752 88.4 -0.9924795346
-0.2071113762 88.4 -0.9783173707
-0.2902846773 88.4 -0.9569403357
-0.7426343879 88.4 -1.857012161
-1.348833989 88.4 -2.679672904
-2.622948413 88.4 -4.256775966
-4.765594436 88.4 -6.425660252
-6.624157776 88.4 -7.491363945
-9.415212078 88.4 -8.964027082
-10.9303212 88.4 -8.748032834
-14.13498341 88.4 -9.444693961
-15.7692617 88.4 -8.679307897
-19.19840487 88.4 -8.510067594
-21.74896848 88.4 -7.48213672
-23.28075008 88.4 -5.831524318
-24.68253545 88.4 -3.971453583
-24.93226142 88.4 -1.83911409
-25.99804225 88.4 0.3190599954
-24.87961817 88.4 2.450428508
-22.61142621 88.4 4.209917423
-18.31174525 88.4 5.067542392
-14.99742419 88.4 5.574698884
-10.84787152 88.4 5.130661121
-6.911782849 88.4 4.02830707
-4.087924066 88.4 2.879040957
-3.060669062 88.4 2.575326172
-4.949747468 88.4 4.949747468
-8.369810058 88.4 9.947174453
-13.2435884 88.4 18.8044507
-15.6096899 88.4 26.78315854
-15.81953846 88.4 33.44760385
-12.19465381 88.4 32.80686542
-9.601659269 88.4 34.69593837
-6.406396078 88.4 34.40869206
-3.430599912 88.4 34.83146543
-0.4785899931 88.4 38.99706337
-1.077689183e-14 88 44
-3.689284431 88 42.84144232
-6.154627995 88 35.46999513
-8.920298086 88 33.84417649
-11.45425502 88 32.01249822
-14.99146416 88 32.73004739
-17.74433492 88 31.32313168
-19.80061338 88 28.8606256
-16.49422539 88 20.09827179
-13.26914874 88 13.59888568
-6.057670772 88 5.225382744
-3.241828793 88 2.34319143
-1.71545722 88 1.028205488
-5.392046794 88 2.631697431
-8.39693519 88 3.239055329
-12.48559675 88 3.620755962
-15.69256449 88 3.121445152
-20.87204637 88 2.314666353
-23.99277165 88 0.5889894845
-24.95295282 88 -1.533018408
-24.72941275 88 -3.668261861
-24.32349881 88 -5.776452707
-22.78867633 88 -7.52836177
-21.13961859 88 -9.061816921
-19.40226782 88 -10.37072821
-17.60271882 88 -11.45182476
-14.97858212 88 -11.68940022
-13.18777689 88 -12.25081796
-9.401825368 88 -10.37331575
-7.871643538 88 -10.34587976
-5.349976199 88 -8.448535652
-3.684309688 88 -7.101116963
-1.530733729 88 -3.69551813
-0.3020059493 88 -0.9533060404
-0.2191012402 88 -0.97570213
-0.269161417 88 -1.981805271
-0.04906767433 88 -0.9987954562
0 88 -0
0.3672320256 88 -2.977438604
0.6213341286 88 -2.934952112
1.741708064 88 -5.741642014
3.341854746 88 -8.356554724
5.395335956 88 -10.71869161
7.344255557 88 -11.9189727
8.935489567 88 -12.04811297
11.923484 88 -13.4844551
14.48494166 88 -13.79081089
16.3954818 88 -13.12204925
19.12380108 88 -12.77811536
20.14961217 88 -11.09022676
22.85524389 88 -10.13103285
23.64018313 88 -8.132757304
24.25078133 88 -6.074504498
23.69523404 88 -3.81259544
20.94309959 88 -1.544855836
19.99849404 88 0.2454307657
15.92295563 88 1.568274245
10.81416036 88 2.013438768
6.746432461 88 1.866989302
3.749356048 88 1.393674721
0 88 0
-0.8639728561 88 -0.5035383837
-1.635169626 88 -1.151616383
-0.7651672656 88 -0.6438315429
0 88 0
3.862989257 88 4.591003594
6.909698297 88 9.811017758
9.063690907 88 15.55151141
11.11643243 88 23.50372162
10.10414173 88 27.18283135
9.601659269 88 34.69593837
6.955515742 88 37.35800852
4.116719894 88 41.79775852
0.5031330697 88 40.99691278
0 87.6 43
3.603487118 87.6 41.84512971
7.351361217 87.6 42.36693862
10.7043577 87.6 40.61301178
12.80181443 87.6 35.77867448
13.74217548 87.6 30.00254344
14.29404757 87.6 25.23252274
13.01183165 87.6 18.96555396
10.78468583 87.6 13.14117771
6.285386245 87.6 6.441577428
3.028835386 87.6 2.612691372
0 87.6 0
-1.71545722 87.6 -1.028205488
-1.797348931 87.6 -0.8772324771
-0.9329927988 87.6 -0.3598950365
0.9604305194 87.6 0.2785196894
5.884711682 87.6 1.170541932
8.94516273 87.6 0.9919998656
13.99578346 87.6 0.3435771993
17.96612603 87.6 -1.103773253
20.77270671 87.6 -3.081339964
21.40467895 87.6 -5.083278382
20.88961997 87.6 -6.900998289
22.05873244 87.6 -9.455808961
21.16611034 87.6 -11.31352168
20.11739293 87.6 -13.08779972
18.13196784 87.6 -14.15032658
15.38573971 87.6 -14.29262095
13.4311791 87.6 -14.81902251
10.89919875 87.6 -14.32506428
8.559961918 87.6 -13.51765704
6.447541953 87.6 -12.42695469
4.974884621 87.6 -12.01043392
3.020059493 87.6 -9.533060404
1.533708681 87.6 -6.82991491
0.538322834 87.6 -3.963610542
0.147203023 87.6 -2.996386369
-0.03680722294 87.6 -0.9993223846
-0.2448213504 87.6 -1.984959069
-0.6213341286 87.6 -2.934952112
-0.5805693545 87.6 -1.913880671
-1.113951582 87.6 -2.785518241
-2.248056648 87.6 -4.466121506
-3.672127779 87.6 -5.959486352
-5.956993045 87.6 -8.032075315
-7.948989331 87.6 -8.989636734
-10.13945916 87.6 -9.653567626
-12.49179566 87.6 -9.99775181
-14.13498341 87.6 -9.444693961
-16.64533179 87.6 -9.16149167
-18.28419511 87.6 -8.10482628
-21.74896848 87.6 -7.48213672
-21.34068757 87.6 -5.345563958
-23.69523404 87.6 -3.81259544
-24.93226142 87.6 -1.83911409
-23.99819284 87.6 0.2945169189
-23.88443344 87.6 2.352411368
-21.62832072 87.6 4.026877535
-18.31174525 87.6 5.067542392
-14.99742419 87.6 5.574698884
-10.84787152 87.6 5.130661121
-6.911782849 87.6 4.02830707
-3.270339253 87.6 2.303232766
-3.825836328 87.6 3.219157714
-4.949747468 87.6 4.949747468
-9.0136416 87.6 10.71234172
-13.2435884 87.6 18.8044507
-14.60261313 87.6 25.05521283
-16.24709355 87.6 34.35159314
-12.89149117 87.6 34.68154344
-9.601659269 87.6 34.69593837
-6.406396078 87.6 34.40869206
-3.528617052 87.6 35.82665016
-0.515404608 87.6 41.99683748
-1.126675055e-14 87.2 46
-3.775081743 87.2 43.83775494
-6.496551773 87.2 37.44055041
-8.920298086 87.2 33.84417649
-11.45425502 87.2 32.01249822
-14.5750346 87.2 31.82087941
-17.74433492 87.2 31.32313168
-19.23488157 87.2 28.03603629
-17.12861867 87.2 20.87128224
-11.87239624 87.2 12.16742403
-7.572088465 87.2 6.53172843
-3.241828793 87.2 2.34319143
-1.71545722 87.2 1.028205488
-4.493372328 87.2 2.193081193
-8.39693519 87.2 3.239055329
-10.56473571 87.2 3.063716583
-15.69256449 87.2 3.121445152
-19.8781394 87.2 2.204444146
-21.99337401 87.2 0.5399070275
-23.95483471 87.2 -1.471697671
-23.74023624 87.2 -3.521531387
-22.3776189 87.2 -5.31433649
-21.83914815 87.2 -7.214680029
-21.13961859 87.2 -9.061816921
-19.40226782 87.2 -10.37072821
-17.60271882 87.2 -11.45182476
-15.76692855 87.2 -12.30463181
-13.18777689 87.2 -12.25081796
-10.74494328 87.2 -11.85521801
-9.082665621 87.2 -11.93755357
-5.884973819 87.2 -9.293389218
-4.144848399 87.2 -7.988756584
-2.678784027 87.2 -6.467156728
-1.510029747 87.2 -4.766530202
-0.6573037205 87.2 -2.92710639
-0.4037421255 87.2 -2.972707906
-0.147203023 87.2 -2.996386369
0.1104216688 87.2 -2.997967154
0.4896427008 87.2 -3.969918138
1.035556881 87.2 -4.891586854
2.612562095 87.2 -8.612463022
4.084489133 87.2 -10.21356689
5.395335956 87.2 -10.71869161
7.344255557 87.2 -11.9189727
10.12688818 87.2 -13.65452804
12.58589977 87.2 -14.2335915
14.48494166 87.2 -13.79081089
16.3954818 87.2 -13.12204925
19.12380108 87.2 -12.77811536
20.14961217 87.2 -11.09022676
21.94103414 87.2 -9.725791536
21.74896848 87.2 -7.48213672
22.31071882 87.2 -5.588544138
22.70793262 87.2 -3.653737297
19.94580913 87.2 -1.471291272
17.99864463 87.2 0.2208876891
13.93258617 87.2 1.372239965
8.847949387 87.2 1.647358992
6.746432461 87.2 1.866989302
2.812017036 87.2 1.045256041
0 87.2 0
-1.727945712 87.2 -1.007076767
-2.452754439 87.2 -1.727424574
-0.7651672656 87.2 -0.6438315429
1.414213562 87.2 1.414213562
4.5068208 87.2 5.356170859
8.06131468 87.2 11.44618738
9.063690907 87.2 15.55151141
11.11643243 87.2 23.50372162
10.45256041 87.2 28.12017036
9.334946512 87.2 33.7321623
7.13855563 87.2 38.34111401
4.214737034 87.2 42.79294325
0.5276761463 87.2 42.99676218
0 86.8 44
3.775081743 86.8 43.83775494
7.522323105 86.8 43.35221627
10.95922336 86.8 41.57998825
12.12803472 86.8 33.89558635
14.5750346 86.8 31.82087941
14.29404757 86.8 25.23252274
11.88036803 86.8 17.31637536
10.15029255 86.8 12.36816725
9.078891242 86.8 9.304500729
3.028835386 86.8 2.612691372
0 86.8 0
0 86.8 0
-0.8986744657 86.8 -0.4386162385
0 86.8 0
0.9604305194 86.8 0.2785196894
4.903926402 86.8 0.9754516101
7.95125576 86.8 0.8817776584
10.99668701 86.8 0.2699535138
14.97177169 86.8 -0.9198110445
17.80517718 86.8 -2.64114854
20.431739 86.8 -4.852220274
19.94009179 86.8 -6.587316548
19.30139089 86.8 -8.273832841
18.52034655 86.8 -9.899331473
18.44094352 86.8 -11.99714975
17.34362141 86.8 -13.53509499
16.11839398 86.8 -14.97322195
13.4311791 86.8 -14.81902251
12.11022083 86.8 -15.91673809
9.629957158 86.8 -15.20736417
7.829158086 86.8 -15.08987355
5.357568053 86.8 -12.93431346
3.322065443 86.8 -10.48636644
1.971911161 86.8 -8.78131917
1.076645668 86.8 -7.927221083
0.2453383716 86.8 -4.993977281
-0.1840361147 86.8 -4.996611923
-0.4896427008 86.8 -3.969918138
-0.8284455048 86.8 -3.913269483
-1.161138709 86.8 -3.827761343
-1.85658597 86.8 -4.642530402
-2.697667978 86.8 -5.359345807
-4.196717461 86.8 -6.810841545
-5.956993045 86.8 -8.032075315
-8.611405109 86.8 -9.738773129
-10.86370624 86.8 -10.34310817
-12.49179566 86.8 -9.99775181
-15.79792263 86.8 -10.55583443
-16.64533179 86.8 -9.16149167
-17.36998536 86.8 -7.699584966
-19.85775383 86.8 -6.831516135
-21.34068757 86.8 -5.345563958
-20.73332978 86.8 -3.33602101
-20.94309959 86.8 -1.544855836
-21.99834344 86.8 0.2699738423
-21.89406399 86.8 2.156377087
-20.64521524 86.8 3.843837647
-17.34796918 86.8 4.800829635
-13.12274617 86.8 4.877861523
-9.943882224 86.8 4.703106028
-7.775755705 86.8 4.531845454
-4.087924066 86.8 2.879040957
-3.060669062 86.8 2.575326172
-4.949747468 86.8 4.949747468
-8.369810058 86.8 9.947174453
-12.66778021 86.8 17.98686589
-14.09907474 86.8 24.19123997
-15.81953846 86.8 33.44760385
-12.89149117 86.8 34.68154344
-9.601659269 86.8 34.69593837
-6.406396078 86.8 34.40869206
-3.528617052 86.8 35.82665016
-0.5399476846 86.8 43.99668688
-1.151167991e-14 86.4 47
-3.775081743 86.4 43.83775494
-6.496551773 86.4 37.44055041
-8.665432427 86.4 32.87720002
-10.78047531 86.4 30.12941009
-14.5750346 86.4 31.82087941
-17.74433492 86.4 31.32313168
-19.23488157 86.4 28.03603629
-16.49422539 86.4 20.09827179
-12.57077249 86.4 12.88315486
-6.057670772 86.4 5.225382744
-3.241828793 86.4 2.34319143
-2.57318583 86.4 1.542308233
-3.594697863 86.4 1.754464954
-7.463942391 86.4 2.879160292
-10.56473571 86.4 3.063716583
-12.75020865 86.4 2.536174186
-17.89032546 86.4 1.983999731
-19.99397637 86.4 0.4908245705
-19.96236226 86.4 -1.226414726
-19.7835302 86.4 -2.934609489
-20.431739 86.4 -4.852220274
-18.99056361 86.4 -6.273634808
-19.30139089 86.4 -8.273832841
-17.63842529 86.4 -9.427934737
-17.60271882 86.4 -11.45182476
-15.76692855 86.4 -12.30463181
-13.92043116 86.4 -12.93141896
-10.74494328 86.4 -11.85521801
-9.688176662 86.4 -12.73339047
-7.489966678 86.4 -11.82794991
-5.526464531 86.4 -10.65167544
-3.444150891 86.4 -8.314915793
-2.416047595 86.4 -7.626448323
-1.533708681 86.4 -6.82991491
-0.6729035425 86.4 -4.954513177
-0.2453383716 86.4 -4.993977281
0.2208433376 86.4 -5.995934308
0.7344640512 86.4 -5.954877208
1.864002386 86.4 -8.804856336
3.19313145 86.4 -10.52634369
4.827123521 86.4 -12.07057905
6.294558615 86.4 -12.50514022
8.393434923 86.4 -13.62168309
10.72258748 86.4 -14.45773557
12.58589977 86.4 -14.2335915
14.48494166 86.4 -13.79081089
16.3954818 86.4 -13.12204925
16.62939225 86.4 -11.11140466
17.52140188 86.4 -9.643675442
18.28419511 86.4 -8.10482628
18.91214651 86.4 -6.506205843
17.46056256 86.4 -4.373643238
18.75872694 86.4 -3.018304723
17.95122822 86.4 -1.324162145
14.99887053 86.4 0.1840730743
9.951847267 86.4 0.9801714033
7.864843899 86.4 1.464319104
4.818880329 86.4 1.333563787
1.874678024 86.4 0.6968373605
-0.9039892931 86.4 -0.4275550934
-0.8639728561 86.4 -0.5035383837
0 86.4 0
0 86.4 0
1.414213562 86.4 1.414213562
4.5068208 86.4 5.356170859
6.909698297 86.4 9.811017758
9.567229291 86.4 16.41548427
10.68887734 86.4 22.59973233
11.14939777 86.4 29.99484838
9.601659269 86.4 34.69593837
7.13855563 86.4 38.34111401
4.116719894 86.4 41.79775852
0.5522192229 86.4 44.99661158
0 86 46
3.946676368 86 45.83038016
7.864246883 86 45.32277155
10.95922336 86 41.57998825
12.80181443 86 35.77867448
13.74217548 86 30.00254344
14.29404757 86 25.23252274
13.57756346 86 19.79014327
10.15029255 86 12.36816725
6.983762494 86 7.157308253
4.543253079 86 3.919037058
1.620914397 86 1.171595715
-0.85772861 86 -0.5141027442
-1.797348931 86 -0.8772324771
0 86 0
0.9604305194 86 0.2785196894
1.961570561 86 0.390180644
5.96344182 86 0.6613332438
9.996988187 86 0.2454122852
10.97929924 86 -0.6745280993
13.84847114 86 -2.054226642
15.56703924 86 -3.696929732
16.14197907 86 -5.332589587
16.54404933 86 -7.091856721
15.87458276 86 -8.485141263
15.92626941 86 -10.36117478
14.97858212 86 -11.68940022
14.65308543 86 -13.61201996
13.4311791 86 -14.81902251
10.89919875 86 -14.32506428
10.16495478 86 -16.05221774
8.289696797 86 -15.97751317
6.122934918 86 -14.78207252
4.22808329 86 -13.34628456
2.410113642 86 -10.73272343
1.480387794 86 -10.89992899
0.4416090689 86 -8.989159106
-0.2944577835 86 -7.994579077
-0.8568747264 86 -6.947356742
-1.864002386 86 -8.804856336
-2.612562095 86 -8.612463022
-4.084489133 86 -10.21356689
-4.496113297 86 -8.932243012
-6.295076192 86 -10.21626232
-8.339790263 86 -11.24490544
-9.936236664 86 -11.23704592
-12.31220041 86 -11.72218926
-14.05327011 86 -11.24747079
-15.79792263 86 -10.55583443
-17.52140188 86 -9.643675442
-17.36998536 86 -7.699584966
-17.96653918 86 -6.180895551
-18.43059381 86 -4.616623418
-19.74602836 86 -3.177162867
-17.95122822 86 -1.324162145
-18.99856933 86 0.2331592274
-17.91332508 86 1.764308526
-17.69589877 86 3.294717983
-13.49286492 86 3.733978605
-11.24806814 86 4.181024163
-8.135903638 86 3.847995841
-6.047809993 86 3.524768686
-4.087924066 86 2.879040957
-3.060669062 86 2.575326172
-4.242640687 86 4.242640687
-9.0136416 86 10.71234172
-11.51616383 86 16.35169626
-14.09907474 86 24.19123997
-14.10931808 86 29.83164667
-12.54307249 86 33.74420443
-9.601659269 86 34.69593837
-6.406396078 86 34.40869206
-3.528617052 86 35.82665016
-0.5276761463 86 42.99676218
-1.151167991e-14 85.6 47
-3.860879055 85.6 44.83406755
-6.667513662 85.6 38.42582805
-8.665432427 85.6 32.87720002
-11.11736516 85.6 31.07095415
-14.5750346 85.6 31.82087941
-17.25143673 85.6 30.45304469
-17.53768613 85.6 25.56226839
-15.22543882 85.6 18.55225088
-13.26914874 85.6 13.59888568
-7.572088465 85.6 6.53172843
-2.431371595 85.6 1.757393572
-1.71545722 85.6 1.028205488
-3.594697863 85.6 1.754464954
-5.597956793 85.6 2.159370219
-8.643874675 85.6 2.506677204
-11.76942336 85.6 2.341083864
-15.90251152 85.6 1.763555317
-16.99487992 85.6 0.4172008849
-16.96800792 85.6 -1.042452517
-17.80517718 85.6 -2.64114854
-17.51291914 85.6 -4.159045949
-18.04103543 85.6 -5.959953068
-17.46316318 85.6 -7.485848761
-17.63842529 85.6 -9.427934737
-16.76449411 85.6 -10.90649977
-15.76692855 85.6 -12.30463181
-14.65308543 85.6 -13.61201996
-12.75962014 85.6 -14.07807138
-10.89919875 85.6 -14.32506428
-8.559961918 85.6 -13.51765704
-6.447541953 85.6 -12.42695469
-4.592201188 85.6 -11.08655439
-3.020059493 85.6 -9.533060404
-2.191012402 85.6 -9.7570213
-1.211226377 85.6 -8.918123719
-0.4416090689 85.6 -8.989159106
0.3680722294 85.6 -9.993223846
1.346517427 85.6 -10.91727488
2.485336514 85.6 -11.73980845
3.773700804 85.6 -12.44022436
5.941075103 85.6 -14.85609729
7.193781274 85.6 -14.29158882
9.442614288 85.6 -15.32439348
11.91398609 85.6 -16.06415063
13.91073133 85.6 -15.73186428
14.48494166 85.6 -13.79081089
15.61474457 85.6 -12.49718976
16.62939225 85.6 -11.11140466
16.64533179 85.6 -9.16149167
16.4557756 85.6 -7.294343652
15.12971721 85.6 -5.204964675
15.52050005 85.6 -3.887682878
14.80952127 85.6 -2.38287215
12.96477594 85.6 -0.9563393268
11.99909642 85.6 0.1472584594
8.95666254 85.6 0.882154263
6.881738412 85.6 1.281279216
1.927552132 85.6 0.5334255149
0.9373390119 85.6 0.3484186802
0 85.6 0
-2.591918568 85.6 -1.510615151
-1.635169626 85.6 -1.151616383
0.7651672656 85.6 0.6438315429
2.121320344 85.6 2.121320344
5.150652343 85.6 6.121338125
6.909698297 85.6 9.811017758
10.07076767 85.6 17.27945712
10.68887734 85.6 22.59973233
10.45256041 85.6 28.12017036
9.334946512 85.6 33.7321623
7.321595518 85.6 39.3242195
4.214737034 85.6 42.79294325
0.5399476846 85.6 43.99668688
0 85.2 46
3.946676368 85.2 45.83038016
7.693284994 85.2 44.33749391
10.95922336 85.2 41.57998825
12.80181443 85.2 35.77867448
13.32574592 85.2 29.09337546
13.80114938 85.2 24.36243575
13.01183165 85.2 18.96555396
10.15029255 85.2 12.36816725
8.380514993 85.2 8.588769903
3.786044233 85.2 3.265864215
3.241828793 85.2 2.34319143
0 85.2 0
0 85.2 0
0 85.2 0
0 85.2 0
2.942355841 85.2 0.585270966
4.96953485 85.2 0.5511110365
6.997891731 85.2 0.1717885997
9.981181129 85.2 -0.613207363
10.88094161 85.2 -1.614035219
12.64821938 85.2 -3.003755408
13.29339453 85.2 -4.391544366
14.70582163 85.2 -6.303872641
14.11074023 85.2 -7.542347789
15.0880447 85.2 -9.815849792
14.1902357 85.2 -11.07416863
14.65308543 85.2 -13.61201996
12.75962014 85.2 -14.07807138
12.11022083 85.2 -15.91673809
10.6999524 85.2 -16.8970713
8.289696797 85.2 -15.97751317
7.270985215 85.2 -17.55371112
4.832095189 85.2 -15.25289665
3.286518602 85.2 -14.63553195
1.884129919 85.2 -13.8726369
0.5397444176 85.2 -10.98675002
-0.4048794524 85.2 -10.99254623
-1.224106752 85.2 -9.924795346
-2.278225138 85.2 -10.76149108
-2.902846773 85.2 -9.569403357
-3.71317194 85.2 -9.285060805
-5.395335956 85.2 -10.71869161
-7.86884524 85.2 -12.7703279
-9.531188872 85.2 -12.8513205
-11.923484 85.2 -13.4844551
-13.03644749 85.2 -12.41172981
-14.83400734 85.2 -11.87233027
-16.62939225 85.2 -11.11140466
-18.39747198 85.2 -10.12585921
-17.36998536 85.2 -7.699584966
-18.91214651 85.2 -6.506205843
-17.46056256 85.2 -4.373643238
-17.77142553 85.2 -2.85944658
-17.95122822 85.2 -1.324162145
-16.99871993 85.2 0.2086161509
-15.92295563 85.2 1.568274245
-14.74658231 85.2 2.745598319
-11.56531279 85.2 3.20055309
-9.373390119 85.2 3.484186802
-8.135903638 85.2 3.847995841
-5.183837137 85.2 3.021230302
-4.087924066 85.2 2.879040957
-2.295501797 85.2 1.931494629
-4.949747468 85.2 4.949747468
-7.725978515 85.2 9.182007187
-10.94035564 85.2 15.53411145
-13.59553636 85.2 23.32726712
-14.96442827 85.2 31.63962526
-12.89149117 85.2 34.68154344
-9.868372027 85.2 35.65971443
-6.589435966 85.2 35.39179755
-3.528617052 85.2 35.82665016
-0.5399476846 85.2 43.99668688
-1.200153863e-14 84.8 49
-3.946676368 84.8 45.83038016
-6.325589884 84.8 36.45527277
-8.920298086 84.8 33.84417649
-11.79114487 84.8 32.95404228
-14.99146416 84.8 32.73004739
-17.25143673 84.8 30.45304469
-17.53768613 84.8 25.56226839
-15.8598321 84.8 19.32526133
-11.87239624 84.8 12.16742403
-6.814879619 84.8 5.878555587
-3.241828793 84.8 2.34319143
-2.57318583 84.8 1.542308233
-3.594697863 84.8 1.754464954
-5.597956793 84.8 2.159370219
-7.683444155 84.8 2.228157515
-10.78863808 84.8 2.145993542
-11.92688364 84.8 1.322666488
-13.99578346 84.8 0.3435771993
-14.97177169 84.8 -0.9198110445
-14.83764765 84.8 -2.200957117
-16.53997919 84.8 -3.927987841
-17.09150725 84.8 -5.646271327
-17.46316318 84.8 -7.485848761
-17.63842529 84.8 -9.427934737
-18.44094352 84.8 -11.99714975
-16.55527498 84.8 -12.9198634
-14.65308543 84.8 -13.61201996
-13.4311791 84.8 -14.81902251
-12.11022083 84.8 -15.91673809
-9.629957158 84.8 -15.20736417
-7.829158086 84.8 -15.08987355
-5.357568053 84.8 -12.93431346
-3.926077341 84.8 -12.39297852
-2.629214882 84.8 -11.70842556
-1.614968502 84.8 -11.89083163
-0.5888120919 84.8 -11.98554547
0.4416866753 84.8 -11.99186862
1.713749453 84.8 -13.89471348
3.106670643 84.8 -14.67476056
4.354270159 84.8 -14.35410504
6.312392297 84.8 -15.78460337
8.542615263 84.8 -16.97126172
10.49179365 84.8 -17.02710386
11.91398609 84.8 -16.06415063
13.24831555 84.8 -14.98272789
15.20918874 84.8 -14.48035144
14.83400734 84.8 -11.87233027
14.13498341 84.8 -9.444693961
14.8931916 84.8 -8.197124125
14.62735609 84.8 -6.483861024
15.12971721 84.8 -5.204964675
12.61040629 84.8 -3.158742339
12.83491844 84.8 -2.065155863
10.97019502 84.8 -0.8092101996
7.999397615 84.8 0.09817230629
6.966293087 84.8 0.6861199823
5.898632925 84.8 1.098239328
1.927552132 84.8 0.5334255149
0 84.8 0
0.9039892931 84.8 0.4275550934
-0.8639728561 84.8 -0.5035383837
0 84.8 0
1.530334531 84.8 1.287663086
3.535533906 84.8 3.535533906
5.794483886 84.8 6.886505391
8.637122871 84.8 12.2637722
10.07076767 84.8 17.27945712
10.68887734 84.8 22.59973233
10.80097909 84.8 29.05750937
9.334946512 84.8 33.7321623
7.13855563 84.8 38.34111401
4.410771315 84.8 44.7833127
0.5399476846 84.8 43.99668688
0 84.4 47
4.118270993 84.4 47.82300538
8.035208772 84.4 46.30804919
10.95922336 84.4 41.57998825
12.80181443 84.4 35.77867448
13.74217548 84.4 30.00254344
13.80114938 84.4 24.36243575
13.57756346 84.4 19.79014327
12.0534724 84.4 14.68719861
9.078891242 84.4 9.304500729
4.543253079 84.4 3.919037058
3.241828793 84.4 2.34319143
0.85772861 84.4 0.5141027442
-0.8986744657 84.4 -0.4386162385
0 84.4 0
0 84.4 0
0.9807852804 84.4 0.195090322
3.97562788 84.4 0.4408888292
4.998494093 84.4 0.1227061426
6.98682679 84.4 -0.4292451541
8.90258859 84.4 -1.32057427
9.729399522 84.4 -2.310581083
10.44480999 84.4 -3.450499144
11.02936622 84.4 -4.727904481
14.11074023 84.4 -7.542347789
14.24981999 84.4 -9.270524803
14.1902357 84.4 -11.07416863
14.65308543 84.4 -13.61201996
14.10273805 84.4 -15.55997363
12.71573187 84.4 -16.712575
10.6999524 84.4 -16.8970713
9.210774219 84.4 -17.75279241
7.270985215 84.4 -17.55371112
5.738113037 84.4 -18.11281477
3.943822323 84.4 -17.56263834
2.153291336 84.4 -15.85444217
0.7360151149 84.4 -14.98193184
-0.5153011212 84.4 -13.99051338
-1.591338778 84.4 -12.90223395
-2.69244789 84.4 -12.71812582
-4.063985482 84.4 -13.3971647
-5.198440715 84.4 -12.99908513
-6.744169945 84.4 -13.39836452
-7.86884524 84.4 -12.7703279
-11.91398609 84.4 -16.06415063
-12.58589977 84.4 -14.2335915
-14.48494166 84.4 -13.79081089
-17.17621903 84.4 -13.74690874
-18.29233147 84.4 -12.22254513
-18.39747198 84.4 -10.12585921
-18.28419511 84.4 -8.10482628
-18.91214651 84.4 -6.506205843
-18.43059381 84.4 -4.616623418
-16.78412411 84.4 -2.700588437
-13.96206639 84.4 -1.02990389
-14.99887053 84.4 0.1840730743
-12.93740145 84.4 1.274222824
-12.78037134 84.4 2.379518543
-8.673984592 84.4 2.400414817
-9.373390119 84.4 3.484186802
-7.231914345 84.4 3.420440747
-5.183837137 84.4 3.021230302
-3.270339253 84.4 2.303232766
-3.825836328 84.4 3.219157714
-4.949747468 84.4 4.949747468
-8.369810058 84.4 9.947174453
-11.51616383 84.4 16.35169626
-13.59553636 84.4 23.32726712
-14.53687318 84.4 30.73563597
-12.54307249 84.4 33.74420443
-9.601659269 84.4 34.69593837
-6.589435966 84.4 35.39179755
-3.528617052 84.4 35.82665016
-0.5399476846 84.4 43.99668688
-1.200153863e-14 84 49
-3.946676368 84 45.83038016
-6.667513662 84 38.42582805
-8.410566767 84 31.91022354
-12.12803472 84 33.89558635
-15.40789372 84 33.63921537
-16.75853854 84 29.5829577
-17.53768613 84 25.56226839
-15.22543882 84 18.55225088
-12.57077249 84 12.88315486
-7.572088465 84 6.53172843
-4.052285991 84 2.928989287
-0.85772861 84 0.5141027442
-1.797348931 84 0.8772324771
-5.597956793 84 2.159370219
-7.683444155 84 2.228157515
-8.827067524 84 1.755812898
-10.93297667 84 1.21244428
-11.99638582 84 0.2944947423
-12.97553547 84 -0.7971695719
-13.84847114 84 -2.054226642
-15.56703924 84 -3.696929732
-16.14197907 84 -5.332589587
-16.54404933 84 -7.091856721
-16.75650402 84 -8.956538
-18.44094352 84 -11.99714975
-16.55527498 84 -12.9198634
-16.11839398 84 -14.97322195
-14.77429701 84 -16.30092476
-13.32124291 84 -17.5084119
-10.6999524 84 -16.8970713
-8.750235508 84 -16.86515279
-6.888301783 84 -16.62983159
-4.53008924 84 -14.29959061
-3.286518602 84 -14.63553195
-2.153291336 84 -15.85444217
-0.7850827892 84 -15.9807273
0.5521083441 84 -14.98983577
2.080981478 84 -16.87215209
3.728004771 84 -17.60971267
5.515408868 84 -18.18186638
7.797661073 84 -19.49862769
8.992226593 84 -17.86448602
11.01638334 84 -17.87845906
13.1053847 84 -17.67056569
14.57314711 84 -16.48100068
15.20918874 84 -14.48035144
15.61474457 84 -12.49718976
15.79792263 84 -10.55583443
14.01712151 84 -7.714940353
11.88472682 84 -5.268137082
12.29289523 84 -4.229033798
11.64037504 84 -2.915762159
9.873014182 84 -1.588581433
8.97561411 84 -0.6620810724
5.999548211 84 0.07362922971
3.980738907 84 0.3920685613
2.949316462 84 0.5491196639
1.927552132 84 0.5334255149
0.9373390119 84 0.3484186802
-0.9039892931 84 -0.4275550934
0 84 0
1.635169626 84 1.151616383
2.295501797 84 1.931494629
4.949747468 84 4.949747468
6.438315429 84 7.651672656
9.212931063 84 13.08135701
11.07784444 84 19.00740283
11.11643243 84 23.50372162
10.45256041 84 28.12017036
9.334946512 84 33.7321623
6.955515742 84 37.35800852
4.312754175 84 43.78812797
0.5767622994 84 46.99646099
0 83.6 47
4.118270993 83.6 47.82300538
7.864246883 83.6 45.32277155
10.95922336 83.6 41.57998825
12.80181443 83.6 35.77867448
13.32574592 83.6 29.09337546
14.78694577 83.6 26.10260973
13.57756346 83.6 19.79014327
11.41907911 83.6 13.91418816
9.078891242 83.6 9.304500729
4.543253079 83.6 3.919037058
4.052285991 83.6 2.928989287
2.57318583 83.6 1.542308233
2.696023397 83.6 1.315848716
0 83.6 0
0.9604305194 83.6 0.2785196894
1.961570561 83.6 0.390180644
2.98172091 83.6 0.3306666219
4.998494093 83.6 0.1227061426
5.988708677 83.6 -0.3679244178
7.91341208 83.6 -1.173843796
8.75645957 83.6 -2.079522975
10.44480999 83.6 -3.450499144
11.02936622 83.6 -4.727904481
13.22881897 83.6 -7.070951052
13.41159529 83.6 -8.725199815
14.1902357 83.6 -11.07416863
16.11839398 83.6 -14.97322195
14.10273805 83.6 -15.55997363
13.92675395 83.6 -18.30424881
11.76994764 83.6 -18.58677844
10.59239035 83.6 -20.41571127
7.653668647 83.6 -18.47759065
6.040118986 83.6 -19.06612081
4.162923563 83.6 -18.53834047
2.422452753 83.6 -17.83624744
0.7850827892 83.6 -15.9807273
-0.62572279 83.6 -16.98848054
-1.958570803 83.6 -15.87967255
-3.313782019 83.6 -15.65307793
-4.644554836 83.6 -15.31104537
-6.312392297 83.6 -15.78460337
-8.093003934 83.6 -16.07803742
-9.967203971 83.6 -16.17574867
-11.31828679 83.6 -15.2609431
-13.24831555 83.6 -14.98272789
-15.93343582 83.6 -15.16989198
-17.95695626 83.6 -14.37176823
-19.12380108 83.6 -12.77811536
-19.27354207 83.6 -10.60804299
-19.19840487 83.6 -8.510067594
-18.91214651 83.6 -6.506205843
-17.46056256 83.6 -4.373643238
-15.79682269 83.6 -2.541730293
-13.96206639 83.6 -1.02990389
-13.99894583 83.6 0.171801536
-11.94221672 83.6 1.176205684
-10.81416036 83.6 2.013438768
-9.637760658 83.6 2.667127575
-7.498712095 83.6 2.787349442
-6.327925052 83.6 2.992885654
-4.319864281 83.6 2.517691919
-3.270339253 83.6 2.303232766
-3.825836328 83.6 3.219157714
-5.656854249 83.6 5.656854249
-9.0136416 83.6 10.71234172
-12.66778021 83.6 17.98686589
-13.09199798 83.6 22.46329426
-14.10931808 83.6 29.83164667
-12.19465381 83.6 32.80686542
-10.13508478 83.6 36.6234905
-6.772475854 83.6 36.37490303
-3.724651333 83.6 37.81701961
-0.5276761463 83.6 42.99676218
-1.200153863e-14 83.2 49
-4.118270993 83.2 47.82300538
-6.496551773 83.2 37.44055041
-8.665432427 83.2 32.87720002
-12.46492458 83.2 34.83713041
-14.99146416 83.2 32.73004739
-17.74433492 83.2 31.32313168
-17.53768613 83.2 25.56226839
-15.22543882 83.2 18.55225088
-12.57077249 83.2 12.88315486
-8.329297312 83.2 7.184901272
-3.241828793 83.2 2.34319143
-2.57318583 83.2 1.542308233
-4.493372328 83.2 2.193081193
-3.731971195 83.2 1.439580146
-6.723013636 83.2 1.949637826
-8.827067524 83.2 1.755812898
-8.94516273 83.2 0.9919998656
-10.99668701 83.2 0.2699535138
-11.97741735 83.2 -0.7358488356
-11.87011812 83.2 -1.760765693
-14.59409928 83.2 -3.465871624
-17.09150725 83.2 -5.646271327
-17.46316318 83.2 -7.485848761
-17.63842529 83.2 -9.427934737
-18.44094352 83.2 -11.99714975
-18.92031426 83.2 -14.76555817
-17.58370252 83.2 -16.33442395
-15.44585596 83.2 -17.04187588
-13.32124291 83.2 -17.5084119
-12.30494526 83.2 -19.431632
-9.210774219 83.2 -17.75279241
-7.270985215 83.2 -17.55371112
-5.738113037 83.2 -18.11281477
-3.724721083 83.2 -16.58693621
-2.287872045 83.2 -16.8453448
-0.8832181379 83.2 -17.97831821
0.6625300129 83.2 -17.98780292
2.325802829 83.2 -18.85711116
3.935116148 83.2 -18.58803004
5.805693545 83.2 -19.13880671
7.797661073 83.2 -19.49862769
9.891449252 83.2 -19.65093463
12.59015238 83.2 -20.43252463
13.701084 83.2 -18.47377322
15.23556288 83.2 -17.23013707
15.93343582 83.2 -15.16989198
16.3954818 83.2 -13.12204925
16.62939225 83.2 -11.11140466
16.64533179 83.2 -9.16149167
13.71314634 83.2 -6.07861971
13.23850256 83.2 -4.55434409
10.67034379 83.2 -2.672781979
8.885712763 83.2 -1.42972329
6.981033197 83.2 -0.5149519452
6.999472913 83.2 0.085900768
3.980738907 83.2 0.3920685613
1.966210975 83.2 0.3660797759
1.927552132 83.2 0.5334255149
0.9373390119 83.2 0.3484186802
0.9039892931 83.2 0.4275550934
0.8639728561 83.2 0.5035383837
1.635169626 83.2 1.151616383
2.295501797 83.2 1.931494629
4.949747468 83.2 4.949747468
7.082146972 83.2 8.416839922
9.212931063 83.2 13.08135701
11.58138283 83.2 19.87137569
11.54398752 83.2 24.40771091
11.49781645 83.2 30.93218739
9.334946512 83.2 33.7321623
7.321595518 83.2 39.3242195
4.410771315 83.2 44.7833127
0.5644907611 83.2 45.99653628
0 82.8 46
4.118270993 82.8 47.82300538
7.693284994 82.8 44.33749391
10.7043577 82.8 40.61301178
13.13870428 82.8 36.72021854
13.74217548 82.8 30.00254344
13.80114938 82.8 24.36243575
13.01183165 82.8 18.96555396
11.41907911 82.8 13.91418816
8.380514993 82.8 8.588769903
6.814879619 82.8 5.878555587
5.673200388 82.8 4.100585002
4.28864305 82.8 2.570513721
1.797348931 82.8 0.8772324771
2.798978397 82.8 1.07968511
0 82.8 0
0.9807852804 82.8 0.195090322
0.99390697 82.8 0.1102222073
3.998795275 82.8 0.09816491409
5.988708677 82.8 -0.3679244178
7.91341208 82.8 -1.173843796
7.783519618 82.8 -1.848464866
9.495281806 82.8 -3.136817404
11.02936622 82.8 -4.727904481
14.11074023 82.8 -7.542347789
14.24981999 82.8 -9.270524803
14.97858212 82.8 -11.68940022
15.38573971 82.8 -14.29262095
14.77429701 82.8 -16.30092476
13.92675395 82.8 -18.30424881
12.30494526 82.8 -19.431632
10.59239035 82.8 -20.41571127
8.801718944 82.8 -21.24922925
6.946136834 82.8 -21.92603893
4.382024803 82.8 -19.5140426
2.69161417 82.8 -19.81805271
0.9322858122 82.8 -18.97711367
-0.6993372359 82.8 -18.98712531
-2.325802829 82.8 -18.85711116
-3.728004771 82.8 -17.60971267
-5.515408868 82.8 -18.18186638
-7.055026685 82.8 -17.64161553
-8.992226593 82.8 -17.86448602
-11.01638334 82.8 -17.87845906
-13.1053847 82.8 -17.67056569
-15.23556288 82.8 -17.23013707
-17.38192999 82.8 -16.54897307
-18.73769349 82.8 -14.99662772
-19.9552707 82.8 -13.33368559
-20.14961217 82.8 -11.09022676
-19.19840487 82.8 -8.510067594
-19.85775383 82.8 -6.831516135
-18.43059381 82.8 -4.616623418
-16.78412411 82.8 -2.700588437
-13.96206639 82.8 -1.02990389
-12.99902112 82.8 0.1595299977
-10.94703199 82.8 1.078188544
-9.831054874 82.8 1.83039888
-7.710208526 82.8 2.13370206
-5.624034071 82.8 2.090512081
-5.423935759 82.8 2.565330561
-5.183837137 82.8 3.021230302
-4.087924066 82.8 2.879040957
-3.825836328 82.8 3.219157714
-4.949747468 82.8 4.949747468
-8.369810058 82.8 9.947174453
-12.66778021 82.8 17.98686589
-14.60261313 82.8 25.05521283
-14.53687318 82.8 30.73563597
-12.89149117 82.8 34.68154344
-10.13508478 82.8 36.6234905
-6.406396078 82.8 34.40869206
-3.626634192 82.8 36.82183489
-0.5522192229 82.8 44.99661158
-1.200153863e-14 82.4 49
-3.946676368 82.4 45.83038016
-6.496551773 82.4 37.44055041
-9.175163746 82.4 34.81115296
-11.45425502 82.4 32.01249822
-15.40789372 82.4 33.63921537
-16.75853854 82.4 29.5829577
-18.10341795 82.4 26.38685769
-16.49422539 82.4 20.09827179
-13.96752499 82.4 14.31461651
-7.572088465 82.4 6.53172843
-4.86274319 82.4 3.514787145
-4.28864305 82.4 2.570513721
-4.493372328 82.4 2.193081193
-4.664963994 82.4 1.799475183
-6.723013636 82.4 1.949637826
-5.884711682 82.4 1.170541932
-7.95125576 82.4 0.8817776584
-9.996988187 82.4 0.2454122852
-10.97929924 82.4 -0.6745280993
-11.87011812 82.4 -1.760765693
-13.62115933 82.4 -3.234813516
-17.09150725 82.4 -5.646271327
-19.30139089 82.4 -8.273832841
-19.40226782 82.4 -10.37072821
-19.27916823 82.4 -12.54247473
-18.92031426 82.4 -14.76555817
-19.04901106 82.4 -17.69562594
-16.11741492 82.4 -17.78282701
-14.53226499 82.4 -19.10008571
-12.30494526 82.4 -19.431632
-10.13185164 82.4 -19.52807165
-8.03635208 82.4 -19.40147018
-6.644130885 82.4 -20.97273289
-4.382024803 82.4 -19.5140426
-2.422452753 82.4 -17.83624744
-0.8832181379 82.4 -17.97831821
0.6625300129 82.4 -17.98780292
2.570624179 82.4 -20.84207023
4.3493389 82.4 -20.54466479
6.3862629 82.4 -21.05268739
8.540295461 82.4 -21.35563985
9.891449252 82.4 -19.65093463
12.0655627 82.4 -19.58116944
14.29678331 82.4 -19.27698076
15.89797866 82.4 -17.97927347
15.93343582 82.4 -15.16989198
16.3954818 82.4 -13.12204925
17.46086186 82.4 -11.66697489
16.64533179 82.4 -9.16149167
14.62735609 82.4 -6.483861024
12.29289523 82.4 -4.229033798
10.67034379 82.4 -2.672781979
8.885712763 82.4 -1.42972329
5.98374274 82.4 -0.4413873816
4.999623509 82.4 0.06135769143
3.980738907 82.4 0.3920685613
1.966210975 82.4 0.3660797759
2.891328197 82.4 0.8001382724
0.9373390119 82.4 0.3484186802
0 82.4 0
0.8639728561 82.4 0.5035383837
4.087924066 82.4 2.879040957
4.591003594 82.4 3.862989257
7.071067812 82.4 7.071067812
6.438315429 82.4 7.651672656
9.212931063 82.4 13.08135701
10.07076767 82.4 17.27945712
10.68887734 82.4 22.59973233
10.80097909 82.4 29.05750937
9.601659269 82.4 34.69593837
7.321595518 82.4 39.3242195
4.312754175 82.4 43.78812797
0.5890338377 82.4 47.99638569
0 82 45
4.03247368 82 46.82669277
7.864246883 82 45.32277155
10.95922336 82 41.57998825
13.13870428 82 36.72021854
13.74217548 82 30.00254344
14.29404757 82 25.23252274
14.14329527 82 20.61473257
12.0534724 82 14.68719861
10.47564374 82 10.73596238
8.329297312 82 7.184901272
5.673200388 82 4.100585002
3.43091444 82 2.056410977
4.493372328 82 2.193081193
2.798978397 82 1.07968511
2.881291558 82 0.8355590682
0.9807852804 82 0.195090322
2.98172091 82 0.3306666219
0.9996988187 82 0.02454122852
3.992472452 82 -0.2452829452
4.94588255 82 -0.7336523723
5.837639713 82 -1.38634865
9.495281806 82 -3.136817404
11.02936622 82 -4.727904481
12.3468977 82 -6.599554316
14.24981999 82 -9.270524803
15.76692855 82 -12.30463181
15.38573971 82 -14.29262095
16.11741492 82 -17.78282701
14.53226499 82 -19.10008571
13.90993812 82 -21.9661927
11.05292906 82 -21.30335089
8.801718944 82 -21.24922925
7.248142784 82 -22.87934497
5.039328524 82 -22.44114899
2.826194879 82 -20.80895534
1.030421161 82 -20.97470458
-0.7729516818 82 -20.98577008
-2.448213504 82 -19.84959069
-3.935116148 82 -18.58803004
-6.095978222 82 -20.09574705
-7.797661073 82 -19.49862769
-9.891449252 82 -19.65093463
-11.54097302 82 -18.72981425
-13.701084 82 -18.47377322
-15.89797866 82 -17.97927347
-18.10617707 82 -17.23851362
-20.29916794 82 -16.24634669
-19.9552707 82 -13.33368559
-21.90175235 82 -12.0545943
-20.11261463 82 -8.915308908
-19.85775383 82 -6.831516135
-18.43059381 82 -4.616623418
-15.79682269 82 -2.541730293
-12.96477594 82 -0.9563393268
-10.99917172 82 0.1349869211
-8.95666254 82 0.882154263
-6.881738412 82 1.281279216
-6.746432461 82 1.866989302
-5.624034071 82 2.090512081
-5.423935759 82 2.565330561
-5.183837137 82 3.021230302
-3.270339253 82 2.303232766
-3.825836328 82 3.219157714
-6.363961031 82 6.363961031
-10.30130469 82 12.24267625
-12.09197202 82 17.16928108
-14.09907474 82 24.19123997
-14.96442827 82 31.63962526
-12.19465381 82 32.80686542
-9.868372027 82 35.65971443
-6.589435966 82 35.39179755
-3.528617052 82 35.82665016
-0.5276761463 82 42.99676218
-1.175660927e-14 81.6 48
-3.860879055 81.6 44.83406755
-6.496551773 81.6 37.44055041
-8.665432427 81.6 32.87720002
-12.12803472 81.6 33.89558635
-14.99146416 81.6 32.73004739
-17.25143673 81.6 30.45304469
-17.53768613 81.6 25.56226839
-17.12861867 81.6 20.87128224
-13.96752499 81.6 14.31461651
-8.329297312 81.6 7.184901272
-5.673200388 81.6 4.100585002
-4.28864305 81.6 2.570513721
-4.493372328 81.6 2.193081193
-3.731971195 81.6 1.439580146
-6.723013636 81.6 1.949637826
-3.923141122 81.6 0.7803612881
-6.95734879 81.6 0.7715554511
-6.997891731 81.6 0.1717885997
-8.983063016 81.6 -0.5518866267
-11.87011812 81.6 -1.760765693
-13.62115933 81.6 -3.234813516
-17.09150725 81.6 -5.646271327
-19.30139089 81.6 -8.273832841
-20.28418908 81.6 -10.84212495
-20.95561764 81.6 -13.63312471
-21.28535355 81.6 -16.61125295
-19.04901106 81.6 -17.69562594
-18.13209178 81.6 -20.00568038
-15.74328708 81.6 -20.69175952
-13.90993812 81.6 -21.9661927
-11.51346777 81.6 -22.19099051
-8.801718944 81.6 -21.24922925
-6.644130885 81.6 -20.97273289
-4.820227283 81.6 -21.46544686
-2.826194879 81.6 -20.80895534
-1.030421161 81.6 -20.97470458
0.7729516818 81.6 -20.98577008
2.693034854 81.6 -21.83454976
4.763561652 81.6 -22.50129953
6.966832254 81.6 -22.96656806
9.282929849 81.6 -23.21265201
11.24028324 81.6 -22.33060753
13.63933175 81.6 -22.13523502
15.48818192 81.6 -20.88339582
16.56039444 81.6 -18.72840986
17.38192999 81.6 -16.54897307
17.95695626 81.6 -14.37176823
18.29233147 81.6 -12.22254513
16.64533179 81.6 -9.16149167
14.62735609 81.6 -6.483861024
11.3472879 81.6 -3.903723506
10.67034379 81.6 -2.672781979
6.911109927 81.6 -1.112007003
4.986452283 81.6 -0.367822818
3.999698807 81.6 0.04908615314
3.980738907 81.6 0.3920685613
1.966210975 81.6 0.3660797759
1.927552132 81.6 0.5334255149
0.9373390119 81.6 0.3484186802
2.711967879 81.6 1.28266528
2.591918568 81.6 1.510615151
4.905508879 81.6 3.454849149
3.060669062 81.6 2.575326172
5.656854249 81.6 5.656854249
7.725978515 81.6 9.182007187
9.788739254 81.6 13.89894182
10.57430606 81.6 18.14342998
11.11643243 81.6 23.50372162
11.14939777 81.6 29.99484838
9.601659269 81.6 34.69593837
7.13855563 81.6 38.34111401
4.312754175 81.6 43.78812797
0.5767622994 81.6 46.99646099
0 81.2 45
4.118270993 81.2 47.82300538
7.864246883 81.2 45.32277155
10.7043577 81.2 40.61301178
12.12803472 81.2 33.89558635
14.15860504 81.2 30.91171143
15.27984396 81.2 26.97269672
14.14329527 81.2 20.61473257
12.0534724 81.2 14.68719861
11.87239624 81.2 12.16742403
7.572088465 81.2 6.53172843
7.294114784 81.2 5.272180717
5.14637166 81.2 3.084616465
4.493372328 81.2 2.193081193
4.664963994 81.2 1.799475183
1.920861039 81.2 0.5570393788
1.961570561 81.2 0.390180644
1.98781394 81.2 0.2204444146
2.999096456 81.2 0.07362368557
3.992472452 81.2 -0.2452829452
3.95670604 81.2 -0.5869218978
5.837639713 81.2 -1.38634865
8.545753625 81.2 -2.823135664
11.02936622 81.2 -4.727904481
13.22881897 81.2 -7.070951052
15.0880447 81.2 -9.815849792
16.55527498 81.2 -12.9198634
16.11839398 81.2 -14.97322195
16.78897387 81.2 -18.52377813
15.74328708 81.2 -20.69175952
13.90993812 81.2 -21.9661927
11.97400648 81.2 -23.07863013
9.949769241 81.2 -24.02086785
7.852154682 81.2 -24.78595705
5.258429764 81.2 -23.41685112
3.229937004 81.2 -23.78166325
1.12855651 81.2 -22.97229549
-0.8465661277 81.2 -22.98441485
-2.693034854 81.2 -21.83454976
-4.763561652 81.2 -22.50129953
-6.676547577 81.2 -22.00962772
-8.540295461 81.2 -21.35563985
-11.24028324 81.2 -22.33060753
-13.11474207 81.2 -21.28387983
-15.48818192 81.2 -20.88339582
-17.88522599 81.2 -20.22668265
-19.55467124 81.2 -18.61759471
-21.07990517 81.2 -16.87120618
-22.44967953 81.2 -15.00039629
-21.90175235 81.2 -12.0545943
-21.94103414 81.2 -9.725791536
-20.80336116 81.2 -7.156826428
-19.40062506 81.2 -4.859603598
-16.78412411 81.2 -2.700588437
-12.96477594 81.2 -0.9563393268
-10.99917172 81.2 0.1349869211
-7.961477813 81.2 0.7841371226
-6.881738412 81.2 1.281279216
-6.746432461 81.2 1.866989302
-4.68669506 81.2 1.742093401
-5.423935759 81.2 2.565330561
-5.183837137 81.2 3.021230302
-3.270339253 81.2 2.303232766
-5.356170859 81.2 4.5068208
-7.071067812 81.2 7.071067812
-10.30130469 81.2 12.24267625
-13.2435884 81.2 18.8044507
-14.09907474 81.2 24.19123997
-14.10931808 81.2 29.83164667
-12.89149117 81.2 34.68154344
-9.868372027 81.2 35.65971443
-6.589435966 81.2 35.39179755
-3.528617052 81.2 35.82665016
-0.5399476846 81.2 43.99668688
-1.151167991e-14 80.8 47
-3.775081743 80.8 43.83775494
-6.496551773 80.8 37.44055041
-8.410566767 80.8 31.91022354
-12.12803472 80.8 33.89558635
-14.99146416 80.8 32.73004739
-16.75853854 80.8 29.5829577
-18.10341795 80.8 26.38685769
-16.49422539 80.8 20.09827179
-15.36427749 80.8 15.74607816
-9.843715005 80.8 8.491246958
-5.673200388 80.8 4.100585002
-6.00410027 80.8 3.598719209
-4.493372328 80.8 2.193081193
-3.731971195 80.8 1.439580146
-5.762583116 80.8 1.671118136
-4.903926402 80.8 0.9754516101
-6.95734879 80.8 0.7715554511
-5.998192912 80.8 0.1472473711
-7.984944903 80.8 -0.4905658904
-9.8917651 80.8 -1.467304745
-14.59409928 80.8 -3.465871624
-16.14197907 80.8 -5.332589587
-19.30139089 80.8 -8.273832841
-20.28418908 80.8 -10.84212495
-21.79384234 80.8 -14.1784497
-21.28535355 80.8 -16.61125295
-20.51431961 80.8 -19.05682794
-18.13209178 80.8 -20.00568038
-16.95430916 80.8 -22.28343333
-14.44493574 80.8 -22.81104626
-11.97400648 80.8 -23.07863013
-9.184402377 80.8 -22.17310878
-7.248142784 80.8 -22.87934497
-5.039328524 80.8 -22.44114899
-2.960775587 80.8 -21.79985798
-1.12855651 80.8 -22.97229549
0.8465661277 80.8 -22.98441485
2.81544553 80.8 -22.8270293
4.763561652 80.8 -22.50129953
6.966832254 80.8 -22.96656806
9.282929849 80.8 -23.21265201
