# .PCD v0.7 - Point Cloud Data file format
VERSION 0.7
FIELDS x y z
SIZE 4 4 4
TYPE F F F
COUNT 1 1 1
WIDTH 1632
HEIGHT 1
VIEWPOINT 0 0 0 1 0 0 0
POINTS 1632
DATA ascii
-14.65308543 85.6 -13.61201996
-13.4311791 85.6 -14.81902251
-13.92675395 85.6 -18.30424881
-12.83994288 85.6 -20.27648557
-12.4345452 85.6 -23.96626975
-10.33245267 85.6 -24.94474738
-8.456166581 85.6 -26.69256913
-6.134834724 85.6 -27.31965964
-3.902840547 85.6 -28.73617643
-1.47203023 85.6 -29.96386369
1.104216688 85.6 -29.97967154
3.672320256 85.6 -29.77438604
6.00622991 85.6 -28.37120375
8.708540318 85.6 -28.70821007
10.76819862 85.6 -26.92667633
12.58911723 85.6 -25.01028043
14.68851111 85.6 -23.83794541
14.89248261 85.6 -20.08018829
15.89797866 85.6 -17.97927347
15.93343582 85.6 -15.16989198
17.95695626 85.6 -14.37176823
17.46086186 85.6 -11.66697489
18.39747198 85.6 -10.12585921
19.19840487 85.6 -8.510067594
20.80336116 85.6 -7.156826428
21.34068757 85.6 -5.345563958
22.70793262 85.6 -3.653737297
23.93497096 85.6 -1.765549526
24.99811755 85.6 0.3067884571
26.86998762 85.6 2.646462789
29.49316462 85.6 5.491196639
30.84083411 85.6 8.534808239
31.86952641 85.6 11.84623513
28.92765738 85.6 13.68176299
18.14342998 85.6 10.57430606
12.2637722 85.6 8.637122871
9.182007187 85.6 7.725978515
7.778174593 85.6 7.778174593
7.725978515 85.6 9.182007187
5.182273723 85.6 7.358263318
3.021230302 85.6 5.183837137
2.565330561 85.6 5.423935759
1.742093401 85.6 4.68669506
1.06685103 85.6 3.855104263
0.9151994398 85.6 4.915527437
0.4900857016 85.6 4.975923633
0.04908615314 85.6 3.999698807
0 85.2 7
0.5147838741 85.2 5.977875673
0.8548094438 85.2 4.926388212
1.529193958 85.2 5.801858826
1.684449267 85.2 4.707720326
2.498577361 85.2 5.455007899
2.957389153 85.2 5.220521947
3.960122675 85.2 5.772125119
5.075146273 85.2 6.184083627
7.682138743 85.2 7.873039078
9.086506158 85.2 7.838074115
8.915029181 85.2 6.443776432
10.29274332 85.2 6.16923293
17.07481485 85.2 8.333708532
27.05679117 85.2 10.43695606
34.5754987 85.2 10.02670882
35.30827009 85.2 7.023251593
31.80502304 85.2 3.527110633
30.99066338 85.2 0.7607780842
26.94918905 85.2 -1.65565988
25.71858926 85.2 -3.814992336
25.29643876 85.2 -6.007510815
24.6877327 85.2 -8.15572525
22.05873244 85.2 -9.455808961
21.16611034 85.2 -11.31352168
19.27916823 85.2 -12.54247473
18.13196784 85.2 -14.15032658
16.85104825 85.2 -15.65382295
15.44585596 85.2 -17.04187588
14.53226499 85.2 -19.10008571
13.90993812 85.2 -21.9661927
12.89508391 85.2 -24.85390937
11.09781954 85.2 -26.79250644
8.75817253 85.2 -27.64587517
6.573037205 85.2 -29.2710639
4.172001964 85.2 -30.7179817
1.521097904 85.2 -30.96265914
-1.104216688 85.2 -29.97967154
-3.672320256 85.2 -29.77438604
-6.00622991 85.2 -28.37120375
-8.998824995 85.2 -29.66515041
-11.13951582 85.2 -27.85518241
-13.03872856 85.2 -25.90350473
-14.68851111 85.2 -23.83794541
-15.48818192 85.2 -20.88339582
-17.22281022 85.2 -19.47754626
-15.93343582 85.2 -15.16989198
-16.3954818 85.2 -13.12204925
-16.62939225 85.2 -11.11140466
-17.52140188 85.2 -9.643675442
-18.28419511 85.2 -8.10482628
-17.96653918 85.2 -6.180895551
-19.40062506 85.2 -4.859603598
-19.74602836 85.2 -3.177162867
-19.94580913 85.2 -1.471291272
-20.99841874 85.2 0.257702304
-22.88924871 85.2 2.254394228
-23.5945317 85.2 4.392957311
-26.02195378 85.2 7.201244452
-26.24549233 85.2 9.755723047
-22.59973233 85.2 10.68887734
-14.68753855 85.2 8.560152523
-9.811017758 85.2 6.909698297
-6.886505391 85.2 5.794483886
-8.485281374 85.2 8.485281374
-7.725978515 85.2 9.182007187
-8.06131468 85.2 11.44618738
-6.042460605 85.2 10.36767427
-4.703106028 85.2 9.943882224
-2.787349442 85.2 7.498712095
-1.866989302 85.2 6.746432461
-1.464319104 85.2 7.864843899
-0.588102842 85.2 5.97110836
-0.07362922971 85.2 5.999548211
-1.469576159e-15 84.8 6
-0.5147838741 84.8 5.977875673
-1.196733221 84.8 6.896943497
-2.038925277 84.8 7.735811768
-2.358228974 84.8 6.590808456
-3.747866041 84.8 8.182511848
-4.928981922 84.8 8.700869911
-7.35451354 84.8 10.71966094
-9.515899262 84.8 11.5951568
-9.777267492 84.8 10.02023155
-9.843715005 84.8 8.491246958
-7.294114784 84.8 5.272180717
-9.43501471 84.8 5.655130186
-14.37879145 84.8 7.017859817
-21.45883437 84.8 8.27758584
-27.85248506 84.8 8.077070992
-28.44277313 84.8 5.657619338
-25.84158122 84.8 2.86577739
-23.99277165 84.8 0.5889894845
-21.95859848 84.8 -1.349056199
-22.75105973 84.8 -3.374800912
-21.40467895 84.8 -5.083278382
-19.94009179 84.8 -6.587316548
-19.30139089 84.8 -8.273832841
-19.40226782 84.8 -10.37072821
-17.60271882 84.8 -11.45182476
-17.34362141 84.8 -13.53509499
-16.85104825 84.8 -15.65382295
-15.44585596 84.8 -17.04187588
-15.13777604 84.8 -19.89592262
-14.44493574 84.8 -22.81104626
-13.35562262 84.8 -25.74154899
-11.8631864 84.8 -28.64026551
-9.362184429 84.8 -29.55248725
-7.011239685 84.8 -31.22246816
-4.172001964 84.8 -30.7179817
-1.619233253 84.8 -32.96025005
1.177831134 84.8 -31.97831631
3.917141606 84.8 -31.75934511
6.834675414 84.8 -32.28447323
9.289109672 84.8 -30.62209074
11.88215021 84.8 -29.71219458
13.03872856 84.8 -25.90350473
15.2131008 84.8 -24.6893006
15.48818192 84.8 -20.88339582
17.22281022 84.8 -19.47754626
18.83042416 84.8 -17.92805416
18.73769349 84.8 -14.99662772
19.9552707 84.8 -13.33368559
21.02568226 84.8 -11.57241053
21.94103414 84.8 -9.725791536
22.69457581 84.8 -7.807447012
24.25078133 84.8 -6.074504498
23.69523404 84.8 -3.81259544
25.92955187 84.8 -1.912678654
26.99796695 84.8 0.3313315337
28.86035707 84.8 2.84249707
30.47627011 84.8 5.674236527
33.7321623 84.8 9.334946512
33.74420443 84.8 12.54307249
29.83164667 84.8 14.10931808
17.27945712 84.8 10.07076767
9.811017758 84.8 6.909698297
9.182007187 84.8 7.725978515
8.485281374 84.8 8.485281374
8.369810058 84.8 9.947174453
6.333890106 84.8 8.993432945
4.531845454 84.8 7.775755705
3.420440747 84.8 7.231914345
2.438930762 84.8 6.561373083
1.866989302 84.8 6.746432461
1.281279216 84.8 6.881738412
0.6861199823 84.8 6.966293087
0.09817230629 84.8 7.999397615
0 84.4 8
0.6005811864 84.4 6.974188285
1.196733221 84.4 6.896943497
2.038925277 84.4 7.735811768
2.695118827 84.4 7.532352521
2.498577361 84.4 5.455007899
3.450287346 84.4 6.090608938
4.525854486 84.4 6.596714422
6.343932842 84.4 7.730104534
8.380514993 84.4 8.588769903
9.843715005 84.4 8.491246958
8.104571983 84.4 5.857978575
10.29274332 84.4 6.16923293
17.07481485 84.4 8.333708532
27.05679117 84.4 10.43695606
36.49635974 84.4 10.5837482
37.26984066 84.4 7.413432237
34.78674395 84.4 3.857777255
31.9903622 84.4 0.7853193127
28.94542527 84.4 -1.778301353
27.69694228 84.4 -4.108453285
26.26937871 84.4 -6.238568924
24.6877327 84.4 -8.15572525
23.89696014 84.4 -10.24379304
22.92995287 84.4 -12.25631516
21.79384234 84.4 -14.1784497
18.92031426 84.4 -14.76555817
18.31635679 84.4 -17.01502494
17.46053283 84.4 -19.26472926
15.74328708 84.4 -20.69175952
14.97993336 84.4 -23.65589983
13.81616133 84.4 -26.62918861
11.48050297 84.4 -27.71638598
9.362184429 84.4 -29.55248725
7.011239685 84.4 -31.22246816
4.306582672 84.4 -31.70888433
1.570165578 84.4 -31.9614546
-1.177831134 84.4 -31.97831631
-3.794730931 84.4 -30.76686557
-6.834675414 84.4 -32.28447323
-9.289109672 84.4 -30.62209074
-11.51083301 84.4 -28.78368849
-13.93795122 84.4 -27.68995334
-16.26228016 84.4 -26.39201099
-16.67958053 84.4 -22.48981088
-17.22281022 84.4 -19.47754626
-17.38192999 84.4 -16.54897307
-17.17621903 84.4 -13.74690874
-18.29233147 84.4 -12.22254513
-20.14961217 84.4 -11.09022676
-18.28419511 84.4 -8.10482628
-20.80336116 84.4 -7.156826428
-20.37065632 84.4 -5.102583778
-21.7206312 84.4 -3.494879153
-21.94039005 84.4 -1.618420399
-22.99826814 84.4 0.2822453806
-23.88443344 84.4 2.352411368
-23.5945317 84.4 4.392957311
-26.98572984 84.4 7.467957209
-26.24549233 84.4 9.755723047
-24.40771091 84.4 11.54398752
-15.55151141 84.4 9.063690907
-8.993432945 84.4 6.333890106
-6.121338125 84.4 5.150652343
-7.071067812 84.4 7.071067812
-9.0136416 84.4 10.71234172
-8.637122871 84.4 12.2637722
-7.049537372 84.4 12.09561999
-4.703106028 84.4 9.943882224
-3.135768122 84.4 8.436051107
-2.400414817 84.4 8.673984592
-1.647358992 84.4 8.847949387
-0.7841371226 84.4 7.961477813
-0.09817230629 84.4 7.999397615
-1.959434879e-15 84 8
-0.6863784988 84 7.970500897
-1.538656999 84 8.867498782
-2.293790936 84 8.702788239
-3.368898534 84 9.415440652
-4.580725161 84 10.00084781
-5.914778307 84 10.44104389
-8.485977162 84 12.36883954
-10.78468583 84 13.14117771
-11.17401999 84 11.4516932
-9.086506158 84 7.838074115
-6.483657586 84 4.68638286
-7.71955749 84 4.626924698
-12.58144252 84 6.14062734
-22.39182717 84 8.637480877
-27.85248506 84 8.077070992
-28.44277313 84 5.657619338
-26.83548819 84 2.975999597
-24.99247047 84 0.6135307131
-21.95859848 84 -1.349056199
-21.76188322 84 -3.228070438
-22.3776189 84 -5.31433649
-21.83914815 84 -7.214680029
-21.13961859 84 -9.061816921
-19.40226782 84 -10.37072821
-19.27916823 84 -12.54247473
-18.92031426 84 -14.76555817
-16.85104825 84 -15.65382295
-16.78897387 84 -18.52377813
-16.95430916 84 -22.28343333
-14.97993336 84 -23.65589983
-13.81616133 84 -26.62918861
-11.48050297 84 -27.71638598
-9.664190378 84 -30.50579329
-7.011239685 84 -31.22246816
-4.441163381 84 -32.69978697
-1.619233253 84 -32.96025005
1.177831134 84 -31.97831631
4.039552282 84 -32.75182464
6.834675414 84 -32.28447323
9.869679027 84 -32.53597141
12.62478459 84 -31.56920674
14.83717388 84 -29.47640194
15.73769048 84 -25.54065579
16.67958053 84 -22.48981088
17.88522599 84 -20.22668265
20.27891832 84 -19.30713525
20.29916794 84 -16.24634669
20.78674031 84 -13.88925583
23.65389254 84 -13.01896185
22.85524389 84 -10.13103285
24.58579046 84 -8.458067596
25.22081258 84 -6.317484677
25.66983687 84 -4.130311727
27.92413279 84 -2.059807781
26.99796695 84 0.3313315337
29.8555418 84 2.94051421
31.4593756 84 5.857276415
33.7321623 84 9.334946512
34.68154344 84 12.89149117
29.83164667 84 14.10931808
18.14342998 84 10.57430606
10.62860257 84 7.485506488
8.416839922 84 7.082146972
9.192388155 84 9.192388155
9.657473143 84 11.47750898
6.909698297 84 9.811017758
5.538922221 84 9.503701417
3.420440747 84 7.231914345
3.135768122 84 8.436051107
1.866989302 84 6.746432461
1.464319104 84 7.864843899
0.7841371226 84 7.961477813
0.09817230629 84 7.999397615
0 83.6 9
0.7721758111 83.6 8.96681351
1.36769511 83.6 7.882221139
2.038925277 83.6 7.735811768
2.695118827 83.6 7.532352521
3.331436481 83.6 7.273343865
3.943185538 83.6 6.960695929
5.091586297 83.6 7.421303725
6.978326126 83.6 8.503114987
10.47564374 83.6 10.73596238
9.086506158 83.6 7.838074115
8.104571983 83.6 5.857978575
8.5772861 83.6 5.141027442
15.27746592 83.6 7.456476055
27.98978397 83.6 10.7968511
37.45679026 83.6 10.86226789
38.25062594 83.6 7.608522559
35.78065092 83.6 3.967999463
31.9903622 83.6 0.7853193127
30.9416615 83.6 -1.900942825
27.69694228 83.6 -4.108453285
27.24231866 83.6 -6.469627032
25.63726088 83.6 -8.469406991
24.816074 83.6 -10.63778508
22.92995287 83.6 -12.25631516
21.79384234 83.6 -14.1784497
20.49700712 83.6 -15.99602136
19.04901106 83.6 -17.69562594
17.46053283 83.6 -19.26472926
16.34879812 83.6 -21.48759642
15.51493098 83.6 -24.50075339
14.27670004 83.6 -27.51682823
12.62855327 83.6 -30.48802457
9.664190378 83.6 -30.50579329
7.668543405 83.6 -34.14957455
4.575744089 83.6 -33.6906896
1.619233253 83.6 -32.96025005
-1.288252803 83.6 -34.97628346
-4.161962957 83.6 -33.74430418
-7.041786791 83.6 -33.2627906
-9.869679027 83.6 -32.53597141
-11.88215021 83.6 -29.71219458
-14.38756255 83.6 -28.58317764
-16.26228016 83.6 -26.39201099
-16.67958053 83.6 -22.48981088
-18.54764177 83.6 -20.97581905
-19.55467124 83.6 -18.61759471
-18.73769349 83.6 -14.99662772
-19.12380108 83.6 -12.77811536
-21.02568226 83.6 -11.57241053
-19.19840487 83.6 -8.510067594
-20.80336116 83.6 -7.156826428
-22.31071882 83.6 -5.588544138
-22.70793262 83.6 -3.653737297
-22.9376805 83.6 -1.691984963
-23.99819284 83.6 0.2945169189
-23.88443344 83.6 2.352411368
-25.56074267 83.6 4.759037087
-27.94950591 83.6 7.734669967
-28.12017036 83.6 10.45256041
-23.50372162 83.6 11.11643243
-14.68753855 83.6 8.560152523
-7.358263318 83.6 5.182273723
-5.356170859 83.6 4.5068208
-5.656854249 83.6 5.656854249
-8.369810058 83.6 9.947174453
-9.212931063 83.6 13.08135701
-7.049537372 83.6 12.09561999
-5.558216215 83.6 11.75186081
-3.832605483 83.6 10.31072913
-2.933840332 83.6 10.60153672
-1.647358992 83.6 8.847949387
-0.9801714033 83.6 9.951847267
-0.1227153829 83.6 9.999247018
-2.204364238e-15 83.2 9
-0.7721758111 83.2 8.96681351
-1.709618888 83.2 9.852776424
-2.548656596 83.2 9.66976471
-3.705788387 83.2 10.35698472
-4.997154721 83.2 10.9100158
-6.900574691 83.2 12.18121788
-8.485977162 83.2 12.36883954
-10.78468583 83.2 13.14117771
-10.47564374 83.2 10.73596238
-8.329297312 83.2 7.184901272
-5.673200388 83.2 4.100585002
-6.00410027 83.2 3.598719209
-11.68276805 83.2 5.702011101
-22.39182717 83.2 8.637480877
-26.89205454 83.2 7.798551303
-29.42355841 83.2 5.85270966
-26.83548819 83.2 2.975999597
-26.9918681 83.2 0.6626131701
-23.95483471 83.2 -1.471697671
-24.72941275 83.2 -3.668261861
-23.35055885 83.2 -5.545394599
-21.83914815 83.2 -7.214680029
-21.13961859 83.2 -9.061816921
-20.28418908 83.2 -10.84212495
-20.11739293 83.2 -13.08779972
-18.92031426 83.2 -14.76555817
-18.31635679 83.2 -17.01502494
-17.46053283 83.2 -19.26472926
-17.5598202 83.2 -23.07927023
-15.51493098 83.2 -24.50075339
-14.27670004 83.2 -27.51682823
-12.62855327 83.2 -30.48802457
-10.26820228 83.2 -32.41240537
-7.449442165 83.2 -33.17387242
-4.710324798 83.2 -34.68159224
-1.717368601 83.2 -34.95784097
1.288252803 83.2 -34.97628346
4.406784307 83.2 -35.72926325
7.248898167 83.2 -34.24110798
9.869679027 83.2 -32.53597141
12.99610179 83.2 -32.49771282
14.83717388 83.2 -29.47640194
16.78686985 83.2 -27.24336618
17.87097913 83.2 -24.09622594
19.21005755 83.2 -21.72495544
19.55467124 83.2 -18.61759471
21.07990517 83.2 -16.87120618
22.44967953 83.2 -15.00039629
22.77782245 83.2 -12.53677807
22.85524389 83.2 -10.13103285
24.58579046 83.2 -8.458067596
26.19084384 83.2 -6.560464857
25.66983687 83.2 -4.130311727
27.92413279 83.2 -2.059807781
28.99781635 83.2 0.3558746103
30.85072653 83.2 3.03853135
32.44248109 83.2 6.040316303
35.65971443 83.2 9.868372027
35.61888245 83.2 13.23990985
28.92765738 83.2 13.68176299
17.27945712 83.2 10.07076767
9.811017758 83.2 6.909698297
8.416839922 83.2 7.082146972
9.192388155 83.2 9.192388155
10.30130469 83.2 12.24267625
8.06131468 83.2 11.44618738
6.042460605 83.2 10.36767427
3.847995841 83.2 8.135903638
3.135768122 83.2 8.436051107
2.13370206 83.2 7.710208526
1.464319104 83.2 7.864843899
0.882154263 83.2 8.95666254
0.1104438446 83.2 8.999322317
0 82.8 10
0.7721758111 82.8 8.96681351
1.709618888 82.8 9.852776424
2.548656596 82.8 9.66976471
3.032008681 82.8 8.473896587
3.747866041 82.8 8.182511848
4.928981922 82.8 8.700869911
6.223049919 82.8 9.070482331
7.61271941 82.8 9.27612544
10.47564374 82.8 10.73596238
10.60092385 82.8 9.144419801
8.104571983 82.8 5.857978575
9.43501471 82.8 5.655130186
15.27746592 82.8 7.456476055
27.05679117 82.8 10.43695606
36.49635974 82.8 10.5837482
37.26984066 82.8 7.413432237
35.78065092 82.8 3.967999463
31.9903622 82.8 0.7853193127
29.94354339 82.8 -1.839622089
27.69694228 82.8 -4.108453285
27.24231866 82.8 -6.469627032
25.63726088 82.8 -8.469406991
24.816074 82.8 -10.63778508
23.81187414 82.8 -12.72771189
22.63206705 82.8 -14.72377469
21.28535355 82.8 -16.61125295
20.51431961 82.8 -19.05682794
19.47520969 82.8 -21.48758264
16.95430916 82.8 -22.28343333
16.0499286 82.8 -25.34560696
14.27670004 82.8 -27.51682823
12.24586984 82.8 -29.56414504
10.26820228 82.8 -32.41240537
7.887644646 82.8 -35.12527668
4.710324798 82.8 -34.68159224
1.717368601 82.8 -34.95784097
-1.214638357 82.8 -32.97763869
-4.161962957 82.8 -33.74430418
-7.041786791 82.8 -33.2627906
-9.869679027 82.8 -32.53597141
-12.62478459 82.8 -31.56920674
-14.83717388 82.8 -29.47640194
-16.26228016 82.8 -26.39201099
-17.87097913 82.8 -24.09622594
-18.54764177 82.8 -20.97581905
-19.55467124 82.8 -18.61759471
-19.51843071 82.8 -15.6214872
-19.9552707 82.8 -13.33368559
-21.90175235 82.8 -12.0545943
-21.02682438 82.8 -9.320550222
-21.74896848 82.8 -7.48213672
-23.28075008 82.8 -5.831524318
-22.70793262 82.8 -3.653737297
-23.93497096 82.8 -1.765549526
-24.99811755 82.8 0.3067884571
-24.87961817 82.8 2.450428508
-26.54384816 82.8 4.942076975
-26.98572984 82.8 7.467957209
-28.12017036 82.8 10.45256041
-23.50372162 82.8 11.11643243
-15.55151141 82.8 9.063690907
-7.358263318 82.8 5.182273723
-3.825836328 82.8 3.219157714
-5.656854249 82.8 5.656854249
-8.369810058 82.8 9.947174453
-9.212931063 82.8 13.08135701
-7.553075756 82.8 12.95959284
-5.985771308 82.8 12.6558501
-4.529442843 82.8 12.18540715
-2.667127575 82.8 9.637760658
-1.83039888 82.8 9.831054874
-0.9801714033 82.8 9.951847267
-0.1104438446 82.8 8.999322317
-2.204364238e-15 82.4 9
-0.7721758111 82.4 8.96681351
-1.880580776 82.4 10.83805407
-2.803522256 82.4 10.63674118
-3.368898534 82.4 9.415440652
-4.580725161 82.4 10.00084781
-6.407676499 82.4 11.31113088
-9.051708973 82.4 13.19342884
-10.78468583 82.4 13.14117771
-11.17401999 82.4 11.4516932
-7.572088465 82.4 6.53172843
-2.431371595 82.4 1.757393572
-6.00410027 82.4 3.598719209
-12.58144252 82.4 6.14062734
-22.39182717 82.4 8.637480877
-28.81291558 82.4 8.355590682
-29.42355841 82.4 5.85270966
-27.82939516 82.4 3.086221804
-26.9918681 82.4 0.6626131701
-25.95107094 82.4 -1.594339144
-23.74023624 82.4 -3.521531387
-22.3776189 82.4 -5.31433649
-22.78867633 82.4 -7.52836177
-22.05873244 82.4 -9.455808961
-20.28418908 82.4 -10.84212495
-18.44094352 82.4 -11.99714975
-18.92031426 82.4 -14.76555817
-19.04901106 82.4 -17.69562594
-17.46053283 82.4 -19.26472926
-16.95430916 82.4 -22.28343333
-16.0499286 82.4 -25.34560696
-14.73723875 82.4 -28.40446785
-12.24586984 82.4 -29.56414504
-10.57020823 82.4 -33.36571141
-7.887644646 82.4 -35.12527668
-4.844905506 82.4 -35.67249488
-1.717368601 82.4 -34.95784097
1.288252803 82.4 -34.97628346
4.406784307 82.4 -35.72926325
7.456009543 82.4 -35.21942535
10.1599637 82.4 -33.49291175
12.99610179 82.4 -32.49771282
14.83717388 82.4 -29.47640194
16.78686985 82.4 -27.24336618
17.87097913 82.4 -24.09622594
19.87247333 82.4 -22.47409184
20.27891832 82.4 -19.30713525
21.8606424 82.4 -17.49606567
22.44967953 82.4 -15.00039629
21.90175235 82.4 -12.0545943
23.76945365 82.4 -10.53627416
25.53139779 82.4 -8.783377888
27.16087509 82.4 -6.803445037
26.65713829 82.4 -4.28916987
27.92413279 82.4 -2.059807781
27.99789165 82.4 0.343603072
29.8555418 82.4 2.94051421
32.44248109 82.4 6.040316303
35.65971443 82.4 9.868372027
36.55622146 82.4 13.58832853
29.83164667 82.4 14.10931808
17.27945712 82.4 10.07076767
8.993432945 82.4 6.333890106
6.886505391 82.4 5.794483886
7.778174593 82.4 7.778174593
10.30130469 82.4 12.24267625
8.637122871 82.4 12.2637722
6.545998988 82.4 11.23164713
4.275550934 82.4 9.039892931
3.484186802 82.4 9.373390119
2.400414817 82.4 8.673984592
1.647358992 82.4 8.847949387
0.882154263 82.4 8.95666254
0.1227153829 82.4 9.999247018
0 82 11
0.7721758111 82 8.96681351
1.709618888 82 9.852776424
2.548656596 82 9.66976471
3.032008681 82 8.473896587
3.747866041 82 8.182511848
4.43608373 82 7.83078292
6.223049919 82 9.070482331
8.247112694 82 10.04913589
10.47564374 82 10.73596238
9.086506158 82 7.838074115
6.483657586 82 4.68638286
7.71955749 82 4.626924698
14.37879145 82 7.017859817
27.05679117 82 10.43695606
35.53592922 82 10.30522851
38.25062594 82 7.608522559
37.76846486 82 4.188443877
32.99006102 82 0.8098605413
29.94354339 82 -1.839622089
27.69694228 82 -4.108453285
27.24231866 82 -6.469627032
26.58678906 82 -8.783088731
25.73518785 82 -11.03177712
23.81187414 82 -12.72771189
22.63206705 82 -14.72377469
21.28535355 82 -16.61125295
20.51431961 82 -19.05682794
19.47520969 82 -21.48758264
17.5598202 82 -23.07927023
16.58492622 82 -26.19046052
14.73723875 82 -28.40446785
12.62855327 82 -30.48802457
10.57020823 82 -33.36571141
7.449442165 82 -33.17387242
4.575744089 82 -33.6906896
1.766436276 82 -35.95663642
-1.288252803 82 -34.97628346
-4.161962957 82 -33.74430418
-7.248898167 82 -34.24110798
-10.1599637 82 -33.49291175
-12.62478459 82 -31.56920674
-15.28678521 82 -30.36962624
-16.78686985 82 -27.24336618
-18.46667844 82 -24.89943348
-18.54764177 82 -20.97581905
-20.27891832 82 -19.30713525
-21.07990517 82 -16.87120618
-19.9552707 82 -13.33368559
-21.90175235 82 -12.0545943
-22.85524389 82 -10.13103285
-22.69457581 82 -7.807447012
-22.31071882 82 -5.588544138
-22.70793262 82 -3.653737297
-23.93497096 82 -1.765549526
-25.99804225 82 0.3190599954
-25.87480289 82 2.548445649
-25.56074267 82 4.759037087
-28.91328197 82 8.001382724
-28.12017036 82 10.45256041
-23.50372162 82 11.11643243
-16.41548427 82 9.567229291
-6.540678505 82 4.606465531
-1.530334531 82 1.287663086
-3.535533906 82 3.535533906
-8.369810058 82 9.947174453
-10.36454745 82 14.71652664
-8.05661414 82 13.8235657
-6.413326401 82 13.5598394
-4.877861523 82 13.12274617
-2.933840332 82 10.60153672
-1.83039888 82 9.831054874
-0.9801714033 82 9.951847267
-0.1227153829 82 9.999247018
-2.204364238e-15 81.6 9
-0.9437704358 81.6 10.95943873
-1.880580776 81.6 10.83805407
-2.803522256 81.6 10.63674118
-4.042678241 81.6 11.29852878
-4.997154721 81.6 10.9100158
-6.900574691 81.6 12.18121788
-9.617440783 81.6 14.01801815
-10.78468583 81.6 13.14117771
-11.17401999 81.6 11.4516932
-6.814879619 81.6 5.878555587
-3.241828793 81.6 2.34319143
-4.28864305 81.6 2.570513721
-12.58144252 81.6 6.14062734
-22.39182717 81.6 8.637480877
-30.73377662 81.6 8.91263006
-29.42355841 81.6 5.85270966
-28.82330213 81.6 3.196444012
-26.9918681 81.6 0.6626131701
-24.95295282 81.6 -1.533018408
-24.72941275 81.6 -3.668261861
-24.32349881 81.6 -5.776452707
-22.78867633 81.6 -7.52836177
-22.05873244 81.6 -9.455808961
-21.16611034 81.6 -11.31352168
-20.95561764 81.6 -13.63312471
-19.70866069 81.6 -15.38078976
-19.04901106 81.6 -17.69562594
-19.47520969 81.6 -21.48758264
-17.5598202 81.6 -23.07927023
-16.58492622 81.6 -26.19046052
-15.19777746 81.6 -29.29210747
-13.0112367 81.6 -31.41190411
-10.57020823 81.6 -33.36571141
-7.887644646 81.6 -35.12527668
-4.710324798 81.6 -34.68159224
-1.766436276 81.6 -35.95663642
1.325060026 81.6 -35.97560585
4.406784307 81.6 -35.72926325
7.870232295 81.6 -37.17606009
10.74053306 81.6 -35.40679242
12.99610179 81.6 -32.49771282
15.28678521 81.6 -30.36962624
17.83604921 81.6 -28.94607657
19.06237774 81.6 -25.70264101
19.87247333 81.6 -22.47409184
21.00316541 81.6 -19.9966758
21.8606424 81.6 -17.49606567
23.28114914 81.6 -15.55596652
24.52996264 81.6 -13.50114562
25.59787316 81.6 -11.34675679
25.53139779 81.6 -8.783377888
27.16087509 81.6 -6.803445037
27.64443971 81.6 -4.448028013
27.92413279 81.6 -2.059807781
29.99774106 81.6 0.3681461486
30.85072653 81.6 3.03853135
33.42558657 81.6 6.22335619
35.65971443 81.6 9.868372027
35.61888245 81.6 13.23990985
28.92765738 81.6 13.68176299
17.27945712 81.6 10.07076767
7.358263318 81.6 5.182273723
4.591003594 81.6 3.862989257
8.485281374 81.6 8.485281374
10.30130469 81.6 12.24267625
9.212931063 81.6 13.08135701
6.545998988 81.6 11.23164713
5.130661121 81.6 10.84787152
3.484186802 81.6 9.373390119
2.667127575 81.6 9.637760658
1.647358992 81.6 8.847949387
0.9801714033 81.6 9.951847267
0.1227153829 81.6 9.999247018
0 81.2 10
0.8579731234 81.2 9.963126122
1.709618888 81.2 9.852776424
2.548656596 81.2 9.66976471
3.032008681 81.2 8.473896587
3.747866041 81.2 8.182511848
4.928981922 81.2 8.700869911
6.788781729 81.2 9.895071633
9.515899262 81.2 11.5951568
11.87239624 81.2 12.16742403
9.843715005 81.2 8.491246958
6.483657586 81.2 4.68638286
6.86182888 81.2 4.112821954
13.48011699 81.2 6.579243578
25.19080557 81.2 9.717165986
34.5754987 81.2 10.02670882
39.23141122 81.2 7.803612881
35.78065092 81.2 3.967999463
31.9903622 81.2 0.7853193127
29.94354339 81.2 -1.839622089
29.6752953 81.2 -4.401914234
28.21525861 81.2 -6.70068514
26.58678906 81.2 -8.783088731
25.73518785 81.2 -11.03177712
24.6937954 81.2 -13.19910863
22.63206705 81.2 -14.72377469
22.07369997 81.2 -17.22648454
19.78166534 81.2 -18.37622694
20.8183276 81.2 -22.96948489
18.77084228 81.2 -24.67094404
16.58492622 81.2 -26.19046052
14.73723875 81.2 -28.40446785
13.39392013 81.2 -32.33578364
10.87221418 81.2 -34.31901745
7.887644646 81.2 -35.12527668
5.114066923 81.2 -37.65430015
1.766436276 81.2 -35.95663642
-1.325060026 81.2 -35.97560585
-4.406784307 81.2 -35.72926325
-7.456009543 81.2 -35.21942535
-10.1599637 81.2 -33.49291175
-12.99610179 81.2 -32.49771282
-14.83717388 81.2 -29.47640194
-17.31145953 81.2 -28.09472137
-18.46667844 81.2 -24.89943348
-19.87247333 81.2 -22.47409184
-21.72741249 81.2 -20.68621634
-21.07990517 81.2 -16.87120618
-21.61820992 81.2 -14.44482606
-21.90175235 81.2 -12.0545943
-21.94103414 81.2 -9.725791536
-21.74896848 81.2 -7.48213672
-23.28075008 81.2 -5.831524318
-22.70793262 81.2 -3.653737297
-23.93497096 81.2 -1.765549526
-24.99811755 81.2 0.3067884571
-24.87961817 81.2 2.450428508
-27.52695365 81.2 5.125116863
-28.91328197 81.2 8.001382724
-28.12017036 81.2 10.45256041
-23.50372162 81.2 11.11643243
-14.68753855 81.2 8.560152523
-5.723093692 81.2 4.03065734
-0 81.2 0
-2.828427125 81.2 2.828427125
-9.0136416 81.2 10.71234172
-10.36454745 81.2 14.71652664
-9.567229291 81.2 16.41548427
-6.413326401 81.2 13.5598394
-4.529442843 81.2 12.18540715
-2.933840332 81.2 10.60153672
-2.013438768 81.2 10.81416036
-0.882154263 81.2 8.95666254
-0.1104438446 81.2 8.999322317
-2.694222958e-15 80.8 11
-0.8579731234 80.8 9.963126122
-2.051542665 80.8 11.82333171
-3.058387915 80.8 11.60371765
-4.379568094 80.8 12.24007285
-5.413584281 80.8 11.81918378
-7.393472883 80.8 13.05130487
-9.617440783 80.8 14.01801815
-10.78468583 80.8 13.14117771
-11.17401999 80.8 11.4516932
-4.543253079 80.8 3.919037058
-1.620914397 80.8 1.171595715
-3.43091444 80.8 2.056410977
-12.58144252 80.8 6.14062734
-21.45883437 80.8 8.27758584
-28.81291558 80.8 8.355590682
-31.38512897 80.8 6.242890305
-29.8172091 80.8 3.306666219
-26.9918681 80.8 0.6626131701
-24.95295282 80.8 -1.533018408
-25.71858926 80.8 -3.814992336
-23.35055885 80.8 -5.545394599
-23.73820451 80.8 -7.84204351
-22.97784629 80.8 -9.849801002
-22.04803161 80.8 -11.78491842
-21.79384234 80.8 -14.1784497
-20.49700712 80.8 -15.99602136
-19.78166534 80.8 -18.37622694
-19.47520969 80.8 -21.48758264
-18.16533124 80.8 -23.87510714
-17.11992384 80.8 -27.03531409
-14.73723875 80.8 -28.40446785
-13.0112367 80.8 -31.41190411
-10.26820228 80.8 -32.41240537
-8.106745886 80.8 -36.10097881
-4.979486215 80.8 -36.66339751
-1.766436276 80.8 -35.95663642
1.361867249 80.8 -36.97492823
4.529194982 80.8 -36.72174278
7.663120919 80.8 -36.19774272
10.74053306 80.8 -35.40679242
13.73873618 80.8 -34.35472498
15.28678521 80.8 -30.36962624
17.83604921 80.8 -28.94607657
19.06237774 80.8 -25.70264101
21.19730488 80.8 -23.97236462
21.72741249 80.8 -20.68621634
23.42211686 80.8 -18.74578464
24.94408837 80.8 -16.66710699
24.52996264 80.8 -13.50114562
24.6836634 80.8 -10.94151548
25.53139779 80.8 -8.783377888
26.19084384 80.8 -6.560464857
27.64443971 80.8 -4.448028013
27.92413279 80.8 -2.059807781
27.99789165 80.8 0.343603072
30.85072653 80.8 3.03853135
33.42558657 80.8 6.22335619
36.6234905 80.8 10.13508478
35.61888245 80.8 13.23990985
28.02366809 80.8 13.2542079
16.41548427 80.8 9.567229291
6.540678505 80.8 4.606465531
4.591003594 80.8 3.862989257
7.778174593 80.8 7.778174593
10.30130469 80.8 12.24267625
9.788739254 80.8 13.89894182
7.049537372 80.8 12.09561999
5.130661121 80.8 10.84787152
3.832605483 80.8 10.31072913
2.400414817 80.8 8.673984592
1.83039888 80.8 9.831054874
0.9801714033 80.8 9.951847267
0.1227153829 80.8 9.999247018
0 80.4 10
0.8579731234 80.4 9.963126122
1.880580776 80.4 10.83805407
2.803522256 80.4 10.63674118
3.368898534 80.4 9.415440652
4.164295601 80.4 9.091679831
5.421880115 80.4 9.570956902
6.223049919 80.4 9.070482331
9.515899262 80.4 11.5951568
12.57077249 80.4 12.88315486
9.086506158 80.4 7.838074115
4.86274319 80.4 3.514787145
3.43091444 80.4 2.056410977
13.48011699 80.4 6.579243578
26.12379837 80.4 10.07706102
35.53592922 80.4 10.30522851
38.25062594 80.4 7.608522559
36.77455789 80.4 4.07822167
32.99006102 80.4 0.8098605413
29.94354339 80.4 -1.839622089
28.68611879 80.4 -4.255183759
28.21525861 80.4 -6.70068514
25.63726088 80.4 -8.469406991
26.6543017 80.4 -11.42576916
25.57571667 80.4 -13.67050537
23.47029176 80.4 -15.26909968
22.07369997 80.4 -17.22648454
21.24697388 80.4 -19.73742894
20.8183276 80.4 -22.96948489
19.37635332 80.4 -25.46678095
17.65492146 80.4 -27.88016765
15.19777746 80.4 -29.29210747
13.0112367 80.4 -31.41190411
10.87221418 80.4 -34.31901745
7.668543405 80.4 -34.14957455
4.979486215 80.4 -36.66339751
1.766436276 80.4 -35.95663642
-1.325060026 80.4 -35.97560585
-4.406784307 80.4 -35.72926325
-7.663120919 80.4 -36.19774272
-10.45024838 80.4 -34.44985209
-12.99610179 80.4 -32.49771282
-14.83717388 80.4 -29.47640194
-17.31145953 80.4 -28.09472137
-18.46667844 80.4 -24.89943348
-19.87247333 80.4 -22.47409184
-21.00316541 80.4 -19.9966758
-21.07990517 80.4 -16.87120618
-22.44967953 80.4 -15.00039629
-21.90175235 80.4 -12.0545943
-21.94103414 80.4 -9.725791536
-22.69457581 80.4 -7.807447012
-25.22081258 80.4 -6.317484677
-23.69523404 80.4 -3.81259544
-25.92955187 80.4 -1.912678654
-24.99811755 80.4 0.3067884571
-25.87480289 80.4 2.548445649
-28.51005914 80.4 5.308156751
-28.91328197 80.4 8.001382724
-28.12017036 80.4 10.45256041
-22.59973233 80.4 10.68887734
-16.41548427 80.4 9.567229291
-6.540678505 80.4 4.606465531
-0 80.4 0
-1.414213562 80.4 1.414213562
-8.369810058 80.4 9.947174453
-9.788739254 80.4 13.89894182
-9.063690907 80.4 15.55151141
-6.840881495 80.4 14.46382869
-4.529442843 80.4 12.18540715
-3.20055309 80.4 11.56531279
-2.013438768 80.4 10.81416036
-1.078188544 80.4 10.94703199
-0.1349869211 80.4 10.99917172
-2.449293598e-15 80 10
-0.9437704358 80 10.95943873
-1.709618888 80 9.852776424
-2.803522256 80 10.63674118
-4.042678241 80 11.29852878
-5.413584281 80 11.81918378
-6.900574691 80 12.18121788
-9.617440783 80 14.01801815
-12.0534724 80 14.68719861
-11.17401999 80 11.4516932
-4.543253079 80 3.919037058
0.8104571983 80 -0.5857978575
-3.43091444 80 2.056410977
-11.68276805 80 5.702011101
-21.45883437 80 8.27758584
-27.85248506 80 8.077070992
-31.38512897 80 6.242890305
-29.8172091 80 3.306666219
-26.9918681 80 0.6626131701
-25.95107094 80 -1.594339144
-24.72941275 80 -3.668261861
-26.26937871 80 -6.238568924
-23.73820451 80 -7.84204351
-22.97784629 80 -9.849801002
-22.04803161 80 -11.78491842
-20.95561764 80 -13.63312471
-20.49700712 80 -15.99602136
-19.78166534 80 -18.37622694
-20.14676865 80 -22.22853376
-19.37635332 80 -25.46678095
-17.11992384 80 -27.03531409
-14.73723875 80 -28.40446785
-12.62855327 80 -30.48802457
-10.57020823 80 -33.36571141
-7.887644646 80 -35.12527668
-4.844905506 80 -35.67249488
-1.766436276 80 -35.95663642
1.361867249 80 -36.97492823
4.529194982 80 -36.72174278
7.870232295 80 -37.17606009
11.03081774 80 -36.36373276
13.36741898 80 -33.4262189
15.73639654 80 -31.26285054
17.31145953 80 -28.09472137
19.06237774 80 -25.70264101
20.53488911 80 -23.22322823
22.45165957 80 -21.37575689
23.42211686 80 -18.74578464
23.28114914 80 -15.55596652
24.52996264 80 -13.50114562
25.59787316 80 -11.34675679
26.47700511 80 -9.108688181
26.19084384 80 -6.560464857
26.65713829 80 -4.28916987
27.92413279 80 -2.059807781
28.99781635 80 0.3558746103
29.8555418 80 2.94051421
32.44248109 80 6.040316303
34.69593837 80 9.601659269
33.74420443 80 12.54307249
28.02366809 80 13.2542079
16.41548427 80 9.567229291
5.723093692 80 4.03065734
3.060669062 80 2.575326172
6.363961031 80 6.363961031
10.30130469 80 12.24267625
9.788739254 80 13.89894182
7.553075756 80 12.95959284
5.130661121 80 10.84787152
3.832605483 80 10.31072913
2.400414817 80 8.673984592
1.83039888 80 9.831054874
0.9801714033 80 9.951847267
0.1104438446 80 8.999322317
0 79.6 11
1.029567748 79.6 11.95575135
1.709618888 79.6 9.852776424
2.803522256 79.6 10.63674118
3.368898534 79.6 9.415440652
4.580725161 79.6 10.00084781
5.914778307 79.6 10.44104389
6.788781729 79.6 9.895071633
10.15029255 79.6 12.36816725
11.87239624 79.6 12.16742403
8.329297312 79.6 7.184901272
2.431371595 79.6 1.757393572
3.43091444 79.6 2.056410977
13.48011699 79.6 6.579243578
27.05679117 79.6 10.43695606
34.5754987 79.6 10.02670882
39.23141122 79.6 7.803612881
36.77455789 79.6 4.07822167
31.9903622 79.6 0.7853193127
29.94354339 79.6 -1.839622089
29.6752953 79.6 -4.401914234
29.18819857 79.6 -6.931743248
26.58678906 79.6 -8.783088731
26.6543017 79.6 -11.42576916
25.57571667 79.6 -13.67050537
24.30851646 79.6 -15.81442466
22.8620464 79.6 -17.84171613
21.24697388 79.6 -19.73742894
20.8183276 79.6 -22.96948489
18.77084228 79.6 -24.67094404
17.11992384 79.6 -27.03531409
15.19777746 79.6 -29.29210747
12.62855327 79.6 -30.48802457
10.87221418 79.6 -34.31901745
8.106745886 79.6 -36.10097881
4.979486215 79.6 -36.66339751
1.766436276 79.6 -35.95663642
-1.325060026 79.6 -35.97560585
-4.284373632 79.6 -34.73678371
-7.248898167 79.6 -34.24110798
-10.45024838 79.6 -34.44985209
-13.36741898 79.6 -33.4262189
-15.28678521 79.6 -30.36962624
-16.26228016 79.6 -26.39201099
-19.06237774 79.6 -25.70264101
-19.87247333 79.6 -22.47409184
-21.00316541 79.6 -19.9966758
-21.8606424 79.6 -17.49606567
-20.78674031 79.6 -13.88925583
-21.90175235 79.6 -12.0545943
-22.85524389 79.6 -10.13103285
-23.64018313 79.6 -8.132757304
-24.25078133 79.6 -6.074504498
-24.68253545 79.6 -3.971453583
-25.92955187 79.6 -1.912678654
-25.99804225 79.6 0.3190599954
-25.87480289 79.6 2.548445649
-26.54384816 79.6 4.942076975
-29.87705804 79.6 8.268095482
-27.18283135 79.6 10.10414173
-24.40771091 79.6 11.54398752
-15.55151141 79.6 9.063690907
-4.905508879 79.6 3.454849149
1.530334531 79.6 -1.287663086
-1.414213562 79.6 1.414213562
-8.369810058 79.6 9.947174453
-10.36454745 79.6 14.71652664
-8.560152523 79.6 14.68753855
-6.413326401 79.6 13.5598394
-3.832605483 79.6 10.31072913
-3.20055309 79.6 11.56531279
-2.013438768 79.6 10.81416036
-1.176205684 79.6 11.94221672
-0.1472584594 79.6 11.99909642
-2.204364238e-15 79.2 9
-0.8579731234 79.2 9.963126122
-2.051542665 79.2 11.82333171
-3.058387915 79.2 11.60371765
-4.042678241 79.2 11.29852878
-5.413584281 79.2 11.81918378
-7.393472883 79.2 13.05130487
-9.617440783 79.2 14.01801815
-12.0534724 79.2 14.68719861
-11.17401999 79.2 11.4516932
-3.786044233 79.2 3.265864215
1.620914397 79.2 -1.171595715
-3.43091444 79.2 2.056410977
-11.68276805 79.2 5.702011101
-21.45883437 79.2 8.27758584
-28.81291558 79.2 8.355590682
-30.40434369 79.2 6.047799982
-29.8172091 79.2 3.306666219
-26.9918681 79.2 0.6626131701
-25.95107094 79.2 -1.594339144
-24.72941275 79.2 -3.668261861
-25.29643876 79.2 -6.007510815
-24.6877327 79.2 -8.15572525
-23.89696014 79.2 -10.24379304
-22.92995287 79.2 -12.25631516
-21.79384234 79.2 -14.1784497
-20.49700712 79.2 -15.99602136
-20.51431961 79.2 -19.05682794
-19.47520969 79.2 -21.48758264
-18.77084228 79.2 -24.67094404
-17.11992384 79.2 -27.03531409
-14.73723875 79.2 -28.40446785
-13.0112367 79.2 -31.41190411
-11.17422012 79.2 -35.27232349
-8.106745886 79.2 -36.10097881
-4.979486215 79.2 -36.66339751
-1.81550395 79.2 -36.95543188
1.398674472 79.2 -37.97425061
4.406784307 79.2 -35.72926325
7.663120919 79.2 -36.19774272
11.03081774 79.2 -36.36373276
13.73873618 79.2 -34.35472498
15.73639654 79.2 -31.26285054
17.83604921 79.2 -28.94607657
19.06237774 79.2 -25.70264101
21.19730488 79.2 -23.97236462
22.45165957 79.2 -21.37575689
22.64137963 79.2 -18.12092516
24.11261876 79.2 -16.11153676
23.65389254 79.2 -13.01896185
26.51208292 79.2 -11.75199811
26.47700511 79.2 -9.108688181
26.19084384 79.2 -6.560464857
28.63174113 79.2 -4.606886157
28.92142324 79.2 -2.133372344
28.99781635 79.2 0.3558746103
27.86517235 79.2 2.744479929
33.42558657 79.2 6.22335619
35.65971443 79.2 9.868372027
34.68154344 79.2 12.89149117
27.11967879 79.2 12.8266528
16.41548427 79.2 9.567229291
4.905508879 79.2 3.454849149
1.530334531 79.2 1.287663086
6.363961031 79.2 6.363961031
10.30130469 79.2 12.24267625
10.94035564 79.2 15.53411145
7.553075756 79.2 12.95959284
5.130661121 79.2 10.84787152
3.832605483 79.2 10.31072913
2.933840332 79.2 10.60153672
1.83039888 79.2 9.831054874
0.9801714033 79.2 9.951847267
0.1227153829 79.2 9.999247018
0 78.8 10
0.9437704358 78.8 10.95943873
1.709618888 78.8 9.852776424
3.058387915 78.8 11.60371765
3.368898534 78.8 9.415440652
4.997154721 78.8 10.9100158
5.421880115 78.8 9.570956902
7.35451354 78.8 10.71966094
10.15029255 78.8 12.36816725
11.87239624 78.8 12.16742403
7.572088465 78.8 6.53172843
2.431371595 78.8 1.757393572
4.28864305 78.8 2.570513721
14.37879145 78.8 7.017859817
27.05679117 78.8 10.43695606
34.5754987 78.8 10.02670882
38.25062594 78.8 7.608522559
34.78674395 78.8 3.857777255
30.99066338 78.8 0.7607780842
29.94354339 78.8 -1.839622089
29.6752953 78.8 -4.401914234
28.21525861 78.8 -6.70068514
27.53631724 78.8 -9.096770472
25.73518785 78.8 -11.03177712
25.57571667 78.8 -13.67050537
24.30851646 78.8 -15.81442466
22.07369997 78.8 -17.22648454
21.97962815 78.8 -20.41802993
21.48988656 78.8 -23.71043601
19.37635332 78.8 -25.46678095
17.11992384 78.8 -27.03531409
14.73723875 78.8 -28.40446785
13.0112367 78.8 -31.41190411
10.87221418 78.8 -34.31901745
8.325847126 78.8 -37.07668094
4.979486215 78.8 -36.66339751
1.766436276 78.8 -35.95663642
-1.325060026 78.8 -35.97560585
-4.406784307 78.8 -35.72926325
-7.456009543 78.8 -35.21942535
-10.45024838 78.8 -34.44985209
-12.62478459 78.8 -31.56920674
-15.28678521 78.8 -30.36962624
-16.78686985 78.8 -27.24336618
-18.46667844 78.8 -24.89943348
-19.87247333 78.8 -22.47409184
-21.00316541 78.8 -19.9966758
-21.07990517 78.8 -16.87120618
-23.28114914 78.8 -15.55596652
-21.90175235 78.8 -12.0545943
-21.94103414 78.8 -9.725791536
-23.64018313 78.8 -8.132757304
-24.25078133 78.8 -6.074504498
-24.68253545 78.8 -3.971453583
-24.93226142 78.8 -1.83911409
-24.99811755 78.8 0.3067884571
-26.86998762 78.8 2.646462789
-27.52695365 78.8 5.125116863
-27.94950591 78.8 7.734669967
-28.12017036 78.8 10.45256041
-23.50372162 78.8 11.11643243
-14.68753855 78.8 8.560152523
-4.087924066 78.8 2.879040957
1.530334531 78.8 -1.287663086
-1.414213562 78.8 1.414213562
-8.369810058 78.8 9.947174453
-9.788739254 78.8 13.89894182
-8.560152523 78.8 14.68753855
-5.985771308 78.8 12.6558501
-4.877861523 78.8 13.12274617
-3.20055309 78.8 11.56531279
-2.013438768 78.8 10.81416036
-1.078188544 78.8 10.94703199
-0.1227153829 78.8 9.999247018
-2.449293598e-15 78.4 10
-0.8579731234 78.4 9.963126122
-1.880580776 78.4 10.83805407
-2.803522256 78.4 10.63674118
-4.379568094 78.4 12.24007285
-5.830013841 78.4 12.72835176
-7.393472883 78.4 13.05130487
-9.617440783 78.4 14.01801815
-12.0534724 78.4 14.68719861
-11.17401999 78.4 11.4516932
-3.786044233 78.4 3.265864215
1.620914397 78.4 -1.171595715
-2.57318583 78.4 1.542308233
-11.68276805 78.4 5.702011101
-21.45883437 78.4 8.27758584
-28.81291558 78.4 8.355590682
-31.38512897 78.4 6.242890305
-28.82330213 78.4 3.196444012
-27.99156692 78.4 0.6871543986
-26.94918905 78.4 -1.65565988
-25.71858926 78.4 -3.814992336
-24.32349881 78.4 -5.776452707
-23.73820451 78.4 -7.84204351
-23.89696014 78.4 -10.24379304
-22.92995287 78.4 -12.25631516
-22.63206705 78.4 -14.72377469
-21.28535355 78.4 -16.61125295
-19.78166534 78.4 -18.37622694
-19.47520969 78.4 -21.48758264
-18.77084228 78.4 -24.67094404
-17.11992384 78.4 -27.03531409
-15.19777746 78.4 -29.29210747
-12.62855327 78.4 -30.48802457
-10.57020823 78.4 -33.36571141
-7.887644646 78.4 -35.12527668
-4.844905506 78.4 -35.67249488
-1.766436276 78.4 -35.95663642
1.288252803 78.4 -34.97628346
4.284373632 78.4 -34.73678371
7.870232295 78.4 -37.17606009
11.03081774 78.4 -36.36373276
13.73873618 78.4 -34.35472498
15.73639654 78.4 -31.26285054
18.36063889 78.4 -29.79743176
19.65807705 78.4 -26.50584854
21.19730488 78.4 -23.97236462
21.72741249 78.4 -20.68621634
23.42211686 78.4 -18.74578464
24.94408837 78.4 -16.66710699
26.28210283 78.4 -14.46551316
26.51208292 78.4 -11.75199811
26.47700511 78.4 -9.108688181
27.16087509 78.4 -6.803445037
27.64443971 78.4 -4.448028013
28.92142324 78.4 -2.133372344
28.99781635 78.4 0.3558746103
30.85072653 78.4 3.03853135
32.44248109 78.4 6.040316303
35.65971443 78.4 9.868372027
34.68154344 78.4 12.89149117
27.11967879 78.4 12.8266528
16.41548427 78.4 9.567229291
4.905508879 78.4 3.454849149
1.530334531 78.4 1.287663086
5.656854249 78.4 5.656854249
10.94513623 78.4 13.00784352
10.94035564 78.4 15.53411145
8.05661414 78.4 13.8235657
5.130661121 78.4 10.84787152
4.181024163 78.4 11.24806814
3.20055309 78.4 11.56531279
2.013438768 78.4 10.81416036
1.078188544 78.4 10.94703199
0.1227153829 78.4 9.999247018
0 78 11
0.9437704358 78 10.95943873
1.709618888 78 9.852776424
2.803522256 78 10.63674118
3.705788387 78 10.35698472
4.997154721 78 10.9100158
5.914778307 78 10.44104389
7.35451354 78 10.71966094
10.15029255 78 12.36816725
11.87239624 78 12.16742403
9.086506158 78 7.838074115
1.620914397 78 1.171595715
1.71545722 78 1.028205488
12.58144252 78 6.14062734
27.05679117 78 10.43695606
34.5754987 78 10.02670882
38.25062594 78 7.608522559
34.78674395 78 3.857777255
31.9903622 78 0.7853193127
31.93977961 78 -1.962263562
29.6752953 78 -4.401914234
30.16113852 78 -7.162801357
28.48584542 78 -9.410452212
28.4925294 78 -12.21375324
26.45763793 78 -14.1419021
23.47029176 78 -15.26909968
22.8620464 78 -17.84171613
22.71228242 78 -21.09863093
20.8183276 78 -22.96948489
19.37635332 78 -25.46678095
17.11992384 78 -27.03531409
14.73723875 78 -28.40446785
13.0112367 78 -31.41190411
10.87221418 78 -34.31901745
8.325847126 78 -37.07668094
5.114066923 78 -37.65430015
1.81550395 78 -36.95543188
-1.325060026 78 -35.97560585
-4.406784307 78 -35.72926325
-7.663120919 78 -36.19774272
-11.03081774 78 -36.36373276
-12.99610179 78 -32.49771282
-14.83717388 78 -29.47640194
-16.78686985 78 -27.24336618
-19.65807705 78 -26.50584854
-21.19730488 78 -23.97236462
-21.72741249 78 -20.68621634
-21.8606424 78 -17.49606567
-23.28114914 78 -15.55596652
-22.77782245 78 -12.53677807
-22.85524389 78 -10.13103285
-23.64018313 78 -8.132757304
-24.25078133 78 -6.074504498
-26.65713829 78 -4.28916987
-24.93226142 78 -1.83911409
-24.99811755 78 0.3067884571
-26.86998762 78 2.646462789
-27.52695365 78 5.125116863
-30.84083411 78 8.534808239
-28.12017036 78 10.45256041
-23.50372162 78 11.11643243
-16.41548427 78 9.567229291
-6.540678505 78 4.606465531
2.295501797 78 -1.931494629
-1.414213562 78 1.414213562
-8.369810058 78 9.947174453
-9.788739254 78 13.89894182
-9.063690907 78 15.55151141
-6.413326401 78 13.5598394
-5.226280204 78 14.06008518
-3.733978605 78 13.49286492
-2.379518543 78 12.78037134
-1.176205684 78 11.94221672
-0.1472584594 78 11.99909642
-2.939152318e-15 77.6 12
-1.029567748 77.6 11.95575135
-2.051542665 77.6 11.82333171
-3.058387915 77.6 11.60371765
-4.379568094 77.6 12.24007285
-6.662872962 77.6 14.54668773
-8.379269268 77.6 14.79147885
-9.617440783 77.6 14.01801815
-13.32225897 77.6 16.23321952
-11.17401999 77.6 11.4516932
-3.786044233 77.6 3.265864215
1.620914397 77.6 -1.171595715
-4.28864305 77.6 2.570513721
-14.37879145 77.6 7.017859817
-22.39182717 77.6 8.637480877
-28.81291558 77.6 8.355590682
-30.40434369 77.6 6.047799982
-29.8172091 77.6 3.306666219
-27.99156692 77.6 0.6871543986
-26.94918905 77.6 -1.65565988
-26.70776577 77.6 -3.96172281
-25.29643876 77.6 -6.007510815
-24.6877327 77.6 -8.15572525
-24.816074 77.6 -10.63778508
-23.81187414 77.6 -12.72771189
-22.63206705 77.6 -14.72377469
-22.07369997 77.6 -17.22648454
-20.51431961 77.6 -19.05682794
-20.14676865 77.6 -22.22853376
-19.37635332 77.6 -25.46678095
-17.65492146 77.6 -27.88016765
-14.73723875 77.6 -28.40446785
-12.62855327 77.6 -30.48802457
-10.87221418 77.6 -34.31901745
-7.668543405 77.6 -34.14957455
-4.844905506 77.6 -35.67249488
-1.81550395 77.6 -36.95543188
1.288252803 77.6 -34.97628346
4.406784307 77.6 -35.72926325
7.456009543 77.6 -35.21942535
11.03081774 77.6 -36.36373276
13.36741898 77.6 -33.4262189
15.28678521 77.6 -30.36962624
17.31145953 77.6 -28.09472137
20.25377635 77.6 -27.30905607
21.19730488 77.6 -23.97236462
23.90015374 77.6 -22.75483798
24.20285409 77.6 -19.37064413
25.77555798 77.6 -17.22267722
27.15817292 77.6 -14.94769693
27.42629267 77.6 -12.15723942
27.42261244 77.6 -9.433998473
28.13090634 77.6 -7.046425217
28.63174113 77.6 -4.606886157
28.92142324 77.6 -2.133372344
31.99759046 77.6 0.3926892251
30.85072653 77.6 3.03853135
32.44248109 77.6 6.040316303
35.65971443 77.6 9.868372027
33.74420443 77.6 12.54307249
27.11967879 77.6 12.8266528
16.41548427 77.6 9.567229291
4.087924066 77.6 2.879040957
0 77.6 0
5.656854249 77.6 5.656854249
10.94513623 77.6 13.00784352
10.36454745 77.6 14.71652664
7.553075756 77.6 12.95959284
5.130661121 77.6 10.84787152
3.832605483 77.6 10.31072913
2.933840332 77.6 10.60153672
2.196478655 77.6 11.79726585
1.176205684 77.6 11.94221672
0.1349869211 77.6 10.99917172
0 77.2 12
1.029567748 77.2 11.95575135
2.051542665 77.2 11.82333171
2.803522256 77.2 10.63674118
3.705788387 77.2 10.35698472
4.997154721 77.2 10.9100158
5.914778307 77.2 10.44104389
7.35451354 77.2 10.71966094
10.15029255 77.2 12.36816725
11.87239624 77.2 12.16742403
8.329297312 77.2 7.184901272
-0.8104571983 77.2 -0.5857978575
1.71545722 77.2 1.028205488
14.37879145 77.2 7.017859817
23.32481997 77.2 8.997375913
32.65463766 77.2 9.469669439
38.25062594 77.2 7.608522559
34.78674395 77.2 3.857777255
32.99006102 77.2 0.8098605413
31.93977961 77.2 -1.962263562
28.68611879 77.2 -4.255183759
30.16113852 77.2 -7.162801357
28.48584542 77.2 -9.410452212
27.57341555 77.2 -11.8197612
27.33955919 77.2 -14.61329884
25.14674117 77.2 -16.35974965
24.43873926 77.2 -19.07217931
24.17759097 77.2 -22.45983293
22.16144551 77.2 -24.45138714
19.98186437 77.2 -26.26261785
17.11992384 77.2 -27.03531409
14.73723875 77.2 -28.40446785
12.62855327 77.2 -30.48802457
10.57020823 77.2 -33.36571141
8.106745886 77.2 -36.10097881
4.844905506 77.2 -35.67249488
1.766436276 77.2 -35.95663642
-1.325060026 77.2 -35.97560585
-4.529194982 77.2 -36.72174278
-7.456009543 77.2 -35.21942535
-10.1599637 77.2 -33.49291175
-13.36741898 77.2 -33.4262189
-14.83717388 77.2 -29.47640194
-16.78686985 77.2 -27.24336618
-19.06237774 77.2 -25.70264101
-21.19730488 77.2 -23.97236462
-23.17590665 77.2 -22.06529743
-22.64137963 77.2 -18.12092516
-22.44967953 77.2 -15.00039629
-23.65389254 77.2 -13.01896185
-24.6836634 77.2 -10.94151548
-24.58579046 77.2 -8.458067596
-25.22081258 77.2 -6.317484677
-24.68253545 77.2 -3.971453583
-25.92955187 77.2 -1.912678654
-25.99804225 77.2 0.3190599954
-25.87480289 77.2 2.548445649
-27.52695365 77.2 5.125116863
-27.94950591 77.2 7.734669967
-29.05750937 77.2 10.80097909
-23.50372162 77.2 11.11643243
-17.27945712 77.2 10.07076767
-7.358263318 77.2 5.182273723
0.7651672656 77.2 -0.6438315429
-0.7071067812 77.2 0.7071067812
-7.725978515 77.2 9.182007187
-10.36454745 77.2 14.71652664
-9.567229291 77.2 16.41548427
-6.840881495 77.2 14.46382869
-5.226280204 77.2 14.06008518
-3.733978605 77.2 13.49286492
-2.562558431 77.2 13.76347682
-1.176205684 77.2 11.94221672
-0.1472584594 77.2 11.99909642
-3.184081678e-15 76.8 13
-1.029567748 76.8 11.95575135
-2.222504554 76.8 12.80860935
-3.058387915 76.8 11.60371765
-5.053347801 76.8 14.12316098
-6.662872962 76.8 14.54668773
-7.886371076 76.8 13.92139186
-11.31463622 76.8 16.49178606
-12.68786568 76.8 15.46020907
-10.47564374 76.8 10.73596238
-5.300461926 76.8 4.572209901
-0 76.8 0
-5.14637166 76.8 3.084616465
-15.27746592 76.8 7.456476055
-23.32481997 76.8 8.997375913
-29.7733461 76.8 8.634110371
-28.44277313 76.8 5.657619338
-30.81111607 76.8 3.416888426
-26.9918681 76.8 0.6626131701
-25.95107094 76.8 -1.594339144
-26.70776577 76.8 -3.96172281
-26.26937871 76.8 -6.238568924
-24.6877327 76.8 -8.15572525
-24.816074 76.8 -10.63778508
-22.92995287 76.8 -12.25631516
-22.63206705 76.8 -14.72377469
-21.28535355 76.8 -16.61125295
-21.24697388 76.8 -19.73742894
-20.8183276 76.8 -22.96948489
-19.37635332 76.8 -25.46678095
-17.11992384 76.8 -27.03531409
